-8.645910513638924,5.024761824220915,7.542971383904783
-6.8222152400335245,7.311455342040619,0.4408197954777493
-8.151693456284278,5.792227015127437,7.56220000479689
9.940346828723461,-1.0906442704600874,5.457686079681594
-4.941822659220115,8.693583197095352,9.82904268537498
-9.672546142217659,-2.5380802049325144,3.5122898294961424
2.775075235050811,-9.60723464061369,9.652106968260645
-1.3859168551929972,9.903496073129526,3.213357622050811
-9.860235589087338,-1.666059461032373,0.1262623327884227
-1.887202975491888,9.820308800098628,0.013416430155800407
2.1130724025314107,-9.774196899063377,4.01353656364769
5.118766182893656,8.590589779803498,3.3221607201075853
-9.939840917884126,1.095245418687721,9.01484262682796
-5.484104661910166,8.36209280367153,5.711736890310598
0.08236374764041712,-9.999660804901065,1.5758777605144592
9.918563201063982,-1.273618477605999,5.813179853131213
4.503335868815907,-8.928603813174604,6.828500933039294
-4.9196503036305135,-8.706149601861215,2.739625449550025
-4.504508936216716,8.928012054401794,9.614671262174568
-7.349495732368796,-6.781217625168274,0.5533410620278634
-7.663018440976595,6.424807263510139,5.9363568750477125
2.6358177480907425,9.646370550567184,4.756647268228976
9.956212446939826,0.9347907313407049,7.221014923050403
9.632023100699545,2.68777435578032,1.8462570933255384
5.578286200129174,-8.299561619112687,3.1853208801831667
-7.099554343822428,7.042466053813259,8.598441534953883
1.9997131438327231,9.79801752102856,0.6072750685896788
-3.3640786612256512,-9.417163838496505,7.543938232470191
-9.969529133962535,0.7800569511723112,9.460836589308105
5.728863441996582,-8.196348190685598,7.349664487560348
-9.236728538494242,3.831820181867363,3.3245403552312225
-7.959117785521871,-6.054126202532405,8.84184541970656
-0.005721605729307808,9.99999836316126,0.8861292956623135
4.1505718496205,-9.097953249008144,2.933042727906403
-0.03891997625911034,-9.999924261485583,8.292228098465618
-8.782852689474588,-4.781369953788246,6.028905668844386
-9.91630933618219,1.2910496307833954,7.259738548712321
8.927559354557749,4.50540608279081,0.9800047620404617
-3.1441108167938085,-9.492869280239782,6.595596002950181
-2.002930015712245,-9.797360427796812,6.009642031668415
-3.4427365178984397,-9.388693480369275,2.269200475326716
-5.602984933134959,8.282907692293971,2.1398535475572333
-9.331916363090997,3.5937914508600093,9.675083895410669
6.697870476783496,7.42553237662001,8.6487250168448
7.09743948070474,-7.044597420558087,7.571817183692918
8.599297292852503,5.104124417482358,3.4333566934804005
-9.767375717642196,2.144381400407496,2.5955965777572407
8.627917317287254,-5.055595194045376,0.7197227593127831
-6.545514538085006,7.5601745635744315,9.848962094346515
-6.637796727598798,-7.479281690314831,0.7473969712339135
5.768355868208873,8.168602731048942,5.829021976766832
8.154392094893247,5.788427209764543,8.334843690662233
9.31391725153854,3.640184807326791,6.030631871069226
9.994711462816156,0.32518114190605657,9.140640721695972
5.309014932753289,8.47433539835441,9.266278862489326
-8.02258661244659,-5.969765828388308,8.486279863162125
-0.7511956140901059,9.971745341181341,5.28983372485143
-3.701071515293562,-9.289890722644836,9.472403759131522
9.141770011513927,-4.053151990313793,9.198878848799778
-9.310632330347406,-3.64857857378591,2.5299098871908154
-8.566987533414235,-5.158170664327141,7.5857024981431795
-8.50884474010302,5.25352845131928,3.0875366891566847
0.6763027776698813,9.977104517489831,9.495459083281027
-0.24100591666973686,-9.997095385567258,2.5678636118787823
-5.438485436489836,-8.391833897134044,2.1190154122741323
8.902878008875799,-4.553983219015602,5.056066070804491
5.118313051286522,-8.59085976541522,5.295632229957473
9.922464243241997,1.2428609502209134,0.6108641752098343
3.4998322860356588,-9.36755965925077,7.807823673493389
9.022714655824101,4.311684153503937,2.6026685495237833
-1.3368571826277744,9.910237780863612,3.781916984164843
9.958610093680758,-0.9088921839468802,6.409169599544252
9.664749900929493,2.5676077100062167,4.1026533812587775
-5.302121206155612,8.47865028853266,5.0888073286941555
7.472047222102108,-6.645939385119019,9.62946004870154
9.877630604886154,1.5596197079469063,2.8430641885466503
-6.667798695233587,7.452547253110259,1.792865192140014
6.516930436102126,7.584828125343761,6.313643442072888
7.793849800046903,-6.2654533191389135,2.8795117735097753
-9.925608280091588,1.2174975442181815,8.115169155080379
-7.0563688498729835,7.085736281752393,6.44958547556334
2.2412117056515775,9.745612863768514,4.34198349856476
0.33408546574410164,-9.994417787023842,6.221438909961222
-2.3380552499273777,9.72283382807127,1.5972783505690746
2.5807763794579595,9.661241808340783,9.17579462903311
-4.173256435253249,9.087570122184331,0.24677678833541772
3.725784586181688,9.28000696214022,8.186127654659067
9.862444120578735,-1.652935560892179,3.304997233870808
-9.746361126602906,-2.2379554932669476,4.50920070406331
-9.005517080521644,4.347489173354308,0.7862097788056444
-2.414643197628068,-9.704096981592285,3.7886344606213163
-5.936686830418725,-8.047095716936196,0.7877688483953604
-1.3359997883632975,-9.910353402653874,7.242568755274213
5.391211459977393,-8.422282291268111,1.5482025886375383
9.978495601096062,0.6554582663347293,5.664476799241608
9.624248104205442,-2.715483093060599,7.941339212374078
7.281216652109324,6.8544791242694645,6.290002694901707
-6.108658345684188,7.917341297159225,3.7516632710083764
1.6880087925576335,9.856501728110645,0.4966196538121892
9.522382179054713,3.0535614675360954,5.538001025211633
8.09345989446642,-5.873321627210926,8.174940776204751
1.9560240246660743,-9.806832822829659,6.7199458338578
-9.133193993447884,-4.072439990723926,8.93936553933062
-9.650807174159716,-2.619526844143299,6.830598989523819
5.677519315442123,-8.231996988749547,3.791393933332566
-9.822212557823862,1.877269418311403,2.521266195093037
-1.2668074660893525,9.919435409531143,8.91640770140675
-9.507196555289687,3.1005182887846234,2.923183379237723
-9.35739073147561,3.5269304924387685,8.635022435913084
-9.356403637631969,-3.5295482670884737,2.66255930783006
-3.313046291398139,-9.435238432125233,8.481639535140573
0.10325422635354291,-9.999466914027973,9.291236760167589
9.093423646258353,-4.160486316486264,6.110982155564387
-1.3394356057452386,9.909889618863668,3.5138548244757315
-4.472362790269246,-8.944158488768805,1.351197065459232
-9.897767941502147,1.4262502501918672,0.6450499745242022
6.245300467643709,-7.810007814903214,8.441420423778412
0.6600204557183259,9.978194876731632,1.273165084402369
-3.0991575684778354,9.507640210154491,2.5182492387355584
9.310972990148748,3.6477091409157696,7.932087431444323
6.631414957353292,7.484940591841129,6.612542569367821
9.999973798580985,0.022891651181158663,2.351406220873251
-9.337027767679164,3.5804905342129074,5.325899119080647
-9.58952690333553,-2.8356610816887247,9.84289599046839
7.1860132280434,-6.954222737760509,4.164608515186061
-7.640136350109619,6.452000972700924,8.168902476517948
8.53530973359371,5.210421072391412,4.223723469166084
7.862455295764774,6.179142070069313,4.109906124791008
-8.498191157042577,-5.270744450109809,0.8449613926716781
-3.6957983099602902,-9.291989821996937,8.9011379295429
2.657978624229628,9.64028783974516,3.5430346867667883
-4.124823828325399,-9.109655777540608,6.500176481436285
9.283949876454408,-3.7159486933328614,9.371882642582474
6.291014503344602,-7.773232051000914,1.4077390222145836
-6.664625017206713,7.455385528597594,4.932379740607021
-9.78336818552149,2.0701949054439246,6.694026370386687
2.986860745301341,-9.543514179178334,8.303911981500356
6.64382823439982,-7.473924430430895,6.5636433315596046
-8.8738818054493,-4.610230113878905,4.011681024379637
-9.979900263085726,-0.6337118736945359,4.430653614951385
9.863544951889775,1.6463538447277122,6.370246931214738
7.842208799368925,-6.20481757565044,9.973212279843917
-9.869143785536929,1.6124518412646671,9.563502904614323
1.4065877725081568,-9.900581338397789,6.415272504788677
9.184924314632188,3.954385582423451,3.7748408851196826
-3.1315997528667205,-9.497003895326415,6.739581505016185
-9.38024154162386,3.4656988647016087,1.6770883685080507
7.1075258247864,7.034420846807105,4.148166205933403
2.574528595334341,-9.662908594817907,0.4724370546100132
0.43441002369457055,9.990559940829828,8.459987554135003
-6.582792253615544,-7.527738448281741,0.1007464417293713
9.578806890359301,-2.871664771035295,1.9630001688690735
5.833729111228699,-8.122044364370513,4.881199976481448
-5.653528998195382,8.24849136912708,6.445372547858726
7.298441624403323,6.836135593679881,7.611359966024256
9.871457439490538,-1.5982265234712276,5.367772880637922
8.5689057978316,-5.154983358643167,8.108704706345415
-9.955594764869346,-0.9413463112511132,7.0062521513063025
-8.645411530027644,5.0256203076301995,9.52182522346108
9.325315765198955,-3.610884362497898,5.261503804086405
-5.379633960189247,-8.429681990109625,8.447224546866526
7.894798615852539,-6.1377646431850765,3.5833892721738136
-0.31134653807538376,9.995151991502103,4.117602680967019
2.338643804507354,9.722692279180668,8.219579181652428
9.963017946088815,0.8592283782046639,1.2673487008655282
-9.78364644791464,2.0688794508639847,1.0875662479720904
6.878903044920989,7.258146657279443,2.2715276389377905
-2.3857161584924578,-9.711249065445083,5.963689651050297
-3.9247139581578896,9.197642107988365,5.839809871697391
-1.4728084695006871,9.89094713423174,6.4256585036610705
1.8887159888543574,-9.820017918183545,5.768310587132186
-8.056521751045096,-5.92388869535352,2.9261911051845124
-9.362138166887519,3.5143091702506766,8.553922646522338
3.1098018697358762,-9.504163946975412,9.22112277345818
9.833402944013912,-1.8177421546133923,2.991809609329054
-9.524431424090192,-3.0471636069963943,7.989950212755237
8.675558490914838,4.9733977189357645,2.3619731387457
-1.8977326318774734,-9.818279424517689,5.938918888415591
5.733587038554914,-8.193044591073278,3.573112750692488
-0.8556957895156356,-9.963321971903007,7.945876056469779
2.575804592843463,-9.66256853530605,9.641862079321458
-7.347671954539706,6.783193705657435,6.610848825742784
6.026170919190913,-7.9803047593871845,5.665023728174615
-9.271067934266489,-3.747972699769263,0.7388745105545758
7.568545887906462,-6.535833010615723,5.589466050616623
3.136852003852462,9.495270375609469,9.808815688126288
-9.982794098731619,0.5863633535011971,8.562545942632093
-9.607575383133058,2.7738953220003926,5.354828698036438
-5.635491791460807,-8.26082515662799,2.306637017876536
-8.67897194313673,-4.96743857639382,8.21766028603221
-7.901581980669791,6.1290294666247505,7.921462348809306
-7.935628619395045,6.084882777427869,8.492981877336065
9.876197110226956,1.568671616350831,6.475508613280857
6.537439981649303,-7.567157886970058,8.221408126344468
-3.048617839450899,9.523966047240075,9.439728325640697
-5.539660362878553,8.325392667253135,8.256744601194898
-9.851324734987006,-1.717964192244177,5.378597536878091
0.06950245838063726,9.999758467497056,5.8208400034614645
-8.726582499450686,-4.883314231163199,5.736973810664213
6.532822044084831,-7.571144968914496,5.5256922717420585
1.188492747281649,9.929123072540643,7.170363253352122
-4.211091755822618,-9.07009957078988,4.008445866269492
-6.562885705840814,7.5450998145863055,5.850035777447033
1.1087722884790283,9.938341109677257,7.082910596014211
3.423496882785517,-9.39572610784062,2.717101302551479
7.383441482910675,-6.744241385688521,0.6382867841168094
-9.92096740257256,1.2547532813635849,4.334693273989947
9.999930201938486,-0.03736249936102587,4.951359601277661
-9.847270230526606,1.7410539931272928,0.5897570419693554
-6.774092622008493,7.356063427435227,6.141069054277919
-9.988199987035603,-0.48565524704462104,4.622841467168799
-0.013745237398098001,9.99999055341798,1.6924052600015105
0.5469109050612178,-9.985033222875382,4.219354977600538
9.204234758775806,-3.909227865620433,4.699845475733353
-8.711149079692637,4.910792371030374,2.410609786687985
-9.856403456111021,1.6885825151181493,1.6281012308760368
1.3189634576125653,-9.912635138926616,1.4839696473466546
0.40451073655643954,9.991815203655968,3.129213901278195
-7.140229834455618,-7.001222601171162,7.092958934122383
-9.627730507134768,2.703110297784109,6.4651159700110465
-7.154890545483125,-6.986239423477853,9.654649519244574
9.114876333259978,4.113274781652342,9.95924670474312
-2.651502619022886,9.642071035898605,2.6158059748432216
-7.593313481473361,6.507041599073647,2.542906405519061
0.6417449774678302,-9.979386924250148,3.940220932531812
-9.352217674202144,3.5406248847260082,9.778761243957403
-2.0128751123169915,-9.79532203565635,5.559275893873705
-9.8697391236414,-1.608803788925888,7.088893288427135
-5.068405821008235,-8.620398043801101,9.69571614260256
-9.68975269649741,2.471576962330156,7.666266731487614
-8.606946647881443,-5.091214923819499,6.173278678629831
1.2969384696527446,-9.91554086300565,0.6717571794136634
-7.298714123136314,-6.8358446551052126,9.17059237556921
0.598026005686509,-9.982102228314567,3.607524056599299
-8.480651404269425,-5.298919867224171,6.819316585427368
-2.1375729924623648,-9.768867984669232,9.199382732728697
-4.355744795607916,-9.001526941332486,7.960215218149389
0.6776013455511478,9.97701640855157,2.9071272898709735
-8.066146774293646,5.910776278590842,6.122823190070552
-2.65105885093724,9.642193058058282,7.156878828165089
8.510031598483911,5.2516056775814155,9.612441483827446
1.3547767509626396,-9.907803992563192,6.2346721947319415
-7.079819632350981,7.062305145869699,7.623732306294825
9.386125579166082,3.4497313826041855,7.8742061536409516
-8.604738905560172,-5.094945374303745,2.9786449665045653
-0.2270605687894398,9.99742184256026,8.047448538333018
9.937710454973875,-1.1144105675660778,7.782509015781342
4.213728649340806,-9.068874840338491,4.610576079095594
9.412616487471903,-3.3767811388616953,2.4919699755546585
-9.239495544673776,-3.825143406455951,2.0501162613891877
-8.177489848846331,-5.7557501485049904,3.1677089222609522
9.370238004820502,3.4926551122344613,7.185824094702525
-2.1310578705491743,-9.770291313587862,1.9056983543057493
-0.20049725712210725,9.997989840457256,8.743401194380729
-7.851203596378325,6.193432173538032,3.8887300973604155
4.8694952692324405,-8.734301106724159,8.453352170593716
3.418345358412302,9.39760155628132,3.2558499129652296
1.4097458870437354,-9.900132147297999,7.536135151640991
-5.076799785683646,-8.615457267962189,2.955237661943105
2.388337265490986,-9.710604775515634,5.147372780294923
-9.930498307583717,-1.1769466271148072,5.845306193923593
4.842362373489677,-8.749372928605307,9.763592807340514
-6.03299007521449,-7.975150829442881,2.513120164547553
-8.752240673306076,4.837177193004903,9.952284073860278
4.9206348066296295,8.705593207805254,5.0170724500425905
-8.984906984250161,-4.389925567065196,4.9284006977492805
3.2231597591372285,-9.466321416848174,6.985559543376533
-8.630425756967856,5.051311834906435,4.401256327358699
-9.576704320852583,2.8786688505216196,3.4038581831750747
-1.5933375263902672,-9.872247744409403,3.1262493349991907
-8.931759100287938,-4.497074535119872,3.6912653998427194
-4.982327254259282,-8.670433387753185,6.959604842820646
1.6082602822414231,-9.869827701868191,8.460240833717
8.01781778145553,-5.976169176267979,1.4554119816475963
-7.753843624512713,6.314895806472467,7.625416792850962
9.923633762114907,1.233488125363663,1.2814640816102207
0.8113493426116878,-9.967031265338921,1.5376949348777935
-7.380655735240622,-6.7472898943101365,1.5262754488420704
-9.561607302301159,-2.9284237733943397,2.8455768290195005
3.344528878881566,9.424124711522403,3.4438889877851198
5.454255908851905,8.381592478804615,0.8804031671010015
6.5247542065950395,-7.57809887396043,3.592919600375301
6.479751846478318,7.616614471539231,3.307554307309446
-1.1683034824990133,-9.931518865348878,1.0186587527173463
-8.337319067887975,-5.52169455513718,1.647880807701213
9.868779682525004,-1.6146787847066273,4.945646249754666
3.8896942722631223,-9.212506633285182,9.094642556661002
-1.0976397813930077,-9.939576797344216,1.2338042957018958
-1.6464390750516902,-9.863530725462507,3.125552276351912
-7.969480346505927,6.040478706746326,5.9785750352641776
0.07742009897045882,-9.999700301922823,4.821743839488701
-8.443626730137288,-5.357720377372367,9.213576591480008
-5.2809567092148635,-8.491848811383687,3.9902914751664387
-9.663559450938743,2.572084512253143,6.222977324718052
-9.79319271795659,2.0232094278551616,7.115682834477365
9.703983804341242,-2.4150979949233684,2.755337134030613
-7.302089669542595,-6.832238758851985,5.558332521073236
-5.605669689712811,8.28109095046269,7.6949554445821375
3.4637412467122526,9.380964586641623,7.820781369067716
-6.828142141699103,7.30592053698593,0.2851654330786546
-9.995657476292298,-0.2946720493054795,2.925633959172682
-4.807021221759812,8.768839545433067,2.403574986735345
-7.257013206235026,-6.880098787410718,1.9971762951235528
7.057651604414802,-7.084458612392424,1.083621726609072
1.6706020169585136,-9.859466968398147,3.1337927278669264
-4.137542290353855,-9.103886191925588,3.324377642437981
-8.904601365222652,4.550612544095013,8.5947889662756
-4.787332221080029,-8.77960421687726,7.775977384400599
1.9223579494236183,-9.813487652933988,6.792759847716333
-9.996351216040896,0.27011546708345313,7.0083771389932625
-9.930308290154052,-1.1785487951280151,1.4080859568096549
9.986582566693212,0.5178500155636031,8.673699935975481
4.163976349277189,9.091826052155872,3.9203576933236284
8.972629042990324,4.414966370980254,2.25378115697215
-9.999433251047053,0.10646435015800453,3.272443510418457
1.7925822023650009,-9.838020585857922,5.967833878453561
8.717551952239944,-4.899417104105091,4.114349222380581
-2.046937542021297,-9.788260657494966,2.574680034890916
1.827473355599583,-9.831599113805119,6.1867669816568895
9.056690330428722,-4.239853801573689,3.1420385142234766
3.757386967193494,9.267256507659884,5.709155800659711
-8.736938621463295,4.86476140471278,0.1969543426900211
9.697735317024467,-2.4400675648302004,7.01078344352112
9.696426100848424,-2.445264989890758,4.692136842233996
1.4422766222566266,-9.895445323222802,3.307124133276984
-9.94440135705577,-1.0530344960101505,7.673390866008888
-9.976190423738561,-0.6896554424544382,3.9564703392749156
6.434352855820341,7.655005116052935,9.420118262183154
-9.64353493646531,2.6461734503189707,3.032281174582143
-8.824709564533745,-4.7036688979589805,7.835164138512017
8.89805663192492,4.563396561231224,0.7033346504190985
-5.05776371786877,8.626646287765036,9.918136429348554
6.556620203356106,-7.550545113363838,5.674250784157865
-9.946902981887975,1.0291360789070219,0.03185130161894256
-7.305100990813153,-6.82901892763673,1.2552757321381125
1.3411418235340988,-9.909658854328319,5.620943286183001
9.913373499729358,1.313402396397878,5.3615585790944635
7.088645369516153,7.053446450157342,6.140679199033967
6.226475253692547,-7.825024339588619,3.6153688463489884
9.830951990752858,1.830951379887629,4.8479975336254455
9.120680680202822,4.10038826573472,1.8923973027113872
9.725726619074573,2.3259926334845265,3.7372036233980266
6.827215338973007,-7.306786620347667,0.9585064956379818
-0.017878814625885926,9.999984017386605,6.61433234537771
8.94842978097127,-4.463810530816296,8.23933679287663
9.727449417725536,2.3187772263827133,9.314652564555924
9.762113157273964,2.16821279042869,7.320759520426911
3.3620761577045117,-9.417878949625274,4.8110673514460505
1.0894323334104925,-9.940479726397504,4.751591636265018
9.698828067947229,-2.435720449558822,9.173885285437548
9.527893765480702,-3.03632020605765,1.472983220564662
0.5724792472954299,9.983599927451824,8.520356422000612
9.167404171021138,-3.9948342600343563,9.39395438339295
1.8442348173813543,9.828468748404218,6.453506627801224
8.303471672988648,5.572464282153371,7.73319555748259
-0.6786583263189434,9.976944566154408,9.01626083712176
2.9837806848889303,9.544477608779003,3.2101660373206586
-1.1359390892720742,-9.935272637701683,0.6679974233697994
-4.2675142775563195,-9.043689617122702,5.032509079020117
-9.917198168525625,-1.2842042229302897,5.438722986563996
8.994695898816936,4.369833599555687,2.691704949956554
-9.911503311473393,1.3274419409721694,3.7718675947510394
8.563058293615427,5.164690954950167,0.05970332732569639
-9.305903466377067,-3.660622989939182,2.023008207080763
1.9359728698088192,-9.810810825174656,2.7329177328247436
9.9163607368695,-1.2906547703677298,7.306567675789485
5.934532894031143,-8.048684322897895,5.45065512452199
-4.036650018079628,-9.14906862098748,3.8830435487617243
-5.4907049713275,8.357760400839418,0.45292231829590524
9.857564088511099,1.6817937569441606,6.631939377640821
-8.147021835354147,-5.798796014196631,6.721709493427311
3.301382176132039,-9.439326020808778,7.548529905307026
-4.537703890612396,8.91118641939002,6.941720240893763
9.91552087994039,-1.2970912379112525,2.1467686521879568
3.9668666763266676,-9.179540771315796,5.050587038901232
-8.6799754782704,-4.965684816480454,6.90108254077186
9.580956398546231,-2.864485030359909,2.009270522589237
-9.961207537193422,-0.8799684090698656,1.5872338066724156
-1.837491167847568,9.829731746496552,8.325459258022171
9.41201299290923,3.3784628784859887,1.7137319029846299
9.98168369284408,0.6049716158718236,8.884704139061183
1.6813633802436296,-9.85763750518225,3.3542932949688264
-9.529362176172327,-3.0317085142434452,0.6025573678572715
-2.7966653742367593,9.60097197082385,9.439210715247842
7.745734297597205,6.324839934024126,6.067843960450642
9.31951158967754,3.625838348556927,1.6442199913728295
4.409802944209081,8.975167853207255,9.950105678361785
-4.772397270181344,-8.787731464693586,0.4052616727000202
-1.7759018265197963,9.841045305381114,0.16926265278200292
-6.1802121129301195,7.861614226047462,4.529923881950354
-5.47591539198332,8.367457834960398,5.24464106125559
-6.467032346445497,-7.62741716638258,6.859914468479803
8.031214800347723,5.9581531392433735,8.582539947045099
4.506021323520526,8.92724883891887,5.861204792044173
-8.725553833649606,-4.88515202384559,3.059437599976451
-6.6949374083951385,7.428176970002221,8.444377872344338
5.525472229227041,8.33481593342293,3.6809286986491974
6.930254661348496,-7.20913103840244,2.7905148254738545
3.29257713305741,9.442400956476453,1.6889789439188918
-9.701754009142054,2.4240398400389567,2.8563553943084807
-6.720942751068454,-7.404655868901701,0.25585617663414495
-4.223454698069847,9.064349420303245,0.3503612666407907
8.581805596737821,5.133479589888266,1.745711863802678
-9.5761237706108,2.8805995087729217,5.040703616637962
9.716421616884661,2.3645614737063774,4.939125258667422
0.874450080835253,-9.961693483345451,7.229830768177549
9.956479691903729,-0.9319399898644866,5.770979749265467
8.532837727540464,5.214468363645722,9.815090004262835
9.650507708716775,-2.6206298792462253,3.847878284176115
0.5150906792203626,-9.98672526868444,6.615263221491449
-1.5130531781725916,-9.884870766986376,0.2269979672478306
8.24106834970159,-5.6643439563242195,3.587141655615813
-1.5679709627629703,-9.87630837205543,7.830387228694001
1.990649724956428,-9.799862941517647,3.4123923982263413
5.070390938778319,8.61923057633074,7.43901601094625
7.314110413910205,-6.819368655024473,9.835133762377628
-7.9201363756064955,-6.1050339713874475,0.6984094934431428
8.357980583524444,-5.490369802247238,0.1315649091212423
-7.698203902247188,6.382605790696003,0.16387605485675638
-9.704824753292877,2.411716506530945,1.919954169962771
-9.986981259063988,-0.510103255336276,6.676135434922788
8.451606865548001,5.34512314079123,1.1201777212129393
9.868494981606633,1.616417890894775,5.282843156129925
-3.5538840876210602,9.347187164690446,3.9411245028772
7.080463049984239,7.061660073793405,2.350728458642699
3.2062705133938203,-9.472055183271543,5.908515653955377
-1.28799087535368,-9.916707089805852,2.112235017668609
-3.006722566045594,-9.537275261353852,4.376457882303591
-7.519871499267147,6.591777653600709,2.5847339048142084
7.101970855649009,-7.040029116808544,9.195788260702153
-2.979586959118671,-9.545787633980234,3.4263772010931746
-4.823579419444417,-8.759742095764707,5.104179688263307
7.719397239683923,6.356957311163907,5.090952537561729
-9.96869703712672,-0.7906196190210223,4.195968600916089
-8.996189739731479,-4.366757397285779,3.0862027165797166
-7.70562286710227,-6.37364701171869,5.384193288740948
-8.773001714486584,-4.799420893984548,0.19388867422578948
7.115936218775922,7.025912875229312,8.567908936405013
2.8820225492766327,-9.575695589640526,9.802490196175247
-8.928285367352327,4.503967184507713,6.570614834100855
-5.300796711013413,8.479478417244152,0.8960437101208207
-3.4950043218920577,9.369362026838106,1.396839444185084
-8.96240346242626,-4.435687565269876,7.50702119874903
-6.182332704429707,-7.859946713034311,6.313050302593933
-9.996503895275376,-0.2644047498518814,9.307984230669465
-4.028654274307722,-9.152592241441882,3.5613218021924875
3.487089228327316,-9.372310745685057,4.271660551626901
-9.649325586800718,2.6249791846628003,1.139693374270565
-6.710070556582236,-7.41450963487729,5.077183192300598
1.0144719617323423,-9.948409251677322,8.865460895622775
9.498194376760617,3.1279871453177357,8.879500676701783
9.721961461986265,2.3416800233281023,1.7049101604885564
2.007529053517,9.796419095735192,6.704126767860609
-8.891406375287367,4.5763405325105735,6.4218531181389835
-2.1304668712001766,9.770420201338247,9.965206049820086
-3.5074886058521755,9.364695599955033,5.4334467892630105
7.737839096644665,-6.334496516254253,3.7951771667804857
-6.698343096883617,-7.425106043446894,3.946491935971225
5.4971443077967095,8.353526468459787,7.59531397410646
-9.939802972784934,-1.0955897326170034,9.70812853507071
9.713856697630849,-2.37507643201062,5.523839840235497
-0.9666247221342273,-9.953172190139128,8.243157885674604
5.837748205823592,8.119156106727068,6.06336541049779
2.8530546047711853,-9.58436640692508,7.1691567827929905
0.6521975794756893,-9.978709251066796,5.401557548124975
8.736678855908416,-4.865227905116348,5.586802141300274
9.782450923808927,-2.074524987381417,7.84416742087218
-7.564270107516955,6.540781126174872,0.6681874718583836
8.536983325820044,5.207678532193645,2.3805154960381323
-0.4703652490669977,-9.98893170126166,5.876751459582065
1.9490316294606813,-9.808224900937063,4.578104391250815
8.04866192672762,5.9345632686192875,3.7845461693511018
4.871847243311317,-8.732989433054406,1.4162944265647714
-9.944140537049222,-1.0554946610070561,6.064315542212379
7.781943904538871,6.2802347939078125,1.8872377713370436
-9.875808340436382,1.5711173167421943,4.539459163529189
4.712332723486539,8.820086184565202,6.103443904438213
-2.033530195533919,9.791054843266469,2.544261349414306
7.204146658620621,6.935435885442627,3.343770760117496
-3.8764451750418583,9.218089433548293,8.0273740533054
5.136108273863168,-8.580232619174978,6.713728616109448
-9.08045146124265,-4.188723106152546,1.1014280153739342
8.21809052279874,5.697630047579917,0.0900270775949874
-3.8039713187437005,9.24823238279485,5.888029981364458
9.201225554716965,-3.9163054389594643,3.3889266586505586
-5.4597558522291845,8.378010863805871,6.566729272730864
5.5657094971633665,8.308000830114638,3.9799610671937358
4.900427680610787,8.71698391343609,7.771274357436849
6.965984612511304,-7.174612071621416,3.082941899243025
-2.0565997438699926,9.786235103118763,5.244204227215299
-9.75917500692738,-2.1813993637488722,8.000569241970076
-5.557968736008954,-8.313181312202149,1.2203682775088098
1.3748158603031404,9.905043228086333,0.8852170826821459
3.7210123760983738,9.281921508875344,9.544338194244528
-5.130895046086572,8.583351095349897,7.6421757627163895
-1.6346324275007316,9.865494251529574,7.795056861553583
-8.65617624395385,-5.007056304217981,3.728677767252324
-9.97951026380916,-0.6398241121805408,0.787783280128016
-9.784010243478743,2.0671583286006445,4.1769201880340585
9.438598456225215,3.303461696787626,8.345534835971405
-9.901069138499283,1.4031499972052348,0.5272114141179829
-9.835968602288066,1.8038075437261463,7.6349195128866745
-0.8231351697371753,-9.966064844879433,6.066922316739691
4.32368361279411,-9.016970667383568,2.983602534343748
1.242328814559013,9.922530882618425,1.1038395426233238
-8.664552736834374,4.992547032388973,7.4181612251232485
-8.86496147795749,4.62735972173439,4.188969933751899
8.945840587100285,4.468997224231541,2.516648573538226
9.2675897938689,-3.756564842056769,5.971563376092015
1.7868646385201956,-9.83906066469793,4.717742572787083
-4.940192801273452,8.69450947933499,4.311003934033305
-5.009829179073916,-8.65457171652645,3.3610488596053676
-9.584237220139357,2.853488550545703,0.6222767956855513
-4.837877226098815,-8.751853743361714,8.570332635849772
8.798163791727557,-4.7531372685768485,9.873849663751542
-4.848321536379869,8.746072162969796,8.269616422517773
9.624928310407403,2.7130711416249453,4.30473980970382
-8.544681244455543,5.195038251124786,8.556288128436355
1.4529546121061507,-9.89388310498762,4.0493380579204965
9.660648782210249,2.582995374904811,8.008259345150396
4.243141265501821,9.055150589636575,3.3833646648762192
-5.109150076548909,8.596312319553093,5.291469795194743
7.014987026631415,-7.126707305354482,5.342317409274699
-9.557608734620075,2.941447819682348,8.193294917606892
3.23235928475563,-9.463184107595819,3.814889683465398
-9.989822212475175,0.45105671831554417,5.440702476283761
-9.892687452645006,1.4610732234491397,3.0212768586004413
3.4468576210307242,-9.387181288349684,5.665044272540374
9.997856504406004,0.20703941003238222,1.3900277968199715
-9.909620226619623,1.3414272116560202,4.609064101659948
-9.999344034288402,-0.11453769659352449,8.852268936944457
9.765133000410348,2.1545712994228805,6.357979752165505
4.796588297997091,-8.774550740608738,2.253164057741742
-5.50273196490555,-8.34984676041463,3.967619397478106
9.873751681215024,1.583991078795424,8.636133897539425
0.17002288019425532,-9.998554506537955,5.3192813819674525
-0.7795987014904353,-9.969564978705662,3.6951786046616695
3.5196273523970483,9.360140132511829,8.019962001387045
6.422569962949753,7.664893676432545,7.246122108263492
6.323891959399488,7.746508277013748,1.0307613977039476
9.993857240951055,0.35045320299606025,2.5130785080446003
-0.8074822065677144,-9.967345307857883,2.7545196314960108
9.364307383015632,-3.508524937405883,7.520344910968001
9.07908761299116,-4.191678436572931,7.904872993053806
3.940694301480157,9.19080673402949,9.415001814645693
-6.314953860041742,-7.753796344084871,2.221226749149756
-9.595844911842935,-2.8142068914452696,5.5365128198118185
-6.5527273841506775,7.553923737303801,7.383183226804406
7.4238366361695025,6.699749965444045,1.9540619606043186
-7.809750113296237,6.245622720583546,2.4270025979676104
-0.7863523258345093,-9.969034558052984,7.80892971728607
-2.0465175450239794,-9.788348478569254,2.7043559218296753
-3.69780633720554,-9.291190897431962,2.8506903260891336
-2.7475651620885815,-9.615138359902947,6.956463822526234
7.038160824366728,-7.103822366187758,2.4423455490841963
-7.829843500727637,6.22041403397822,1.6567909652388113
8.343324470407111,-5.512616146758804,7.247443182915623
7.382736254589317,6.745013372497678,1.9942736617360146
9.584742843197926,-2.8517897239744294,4.005635223668954
-9.999502958363419,0.09970248583289244,4.65833543232439
-9.917910974463068,-1.2786875703724663,2.657941684478342
7.024518261908856,7.117312919080414,3.011837917620154
-6.114651916945998,7.912713310526841,5.951528194747072
-2.007832789856498,9.796356847725438,8.117580871564128
-5.931625767635346,8.050827022904194,4.937258955653739
9.999980441680242,-0.019777917297975525,5.720304328504039
-9.654213430325562,-2.6069451551042535,7.55300396872081
2.0349182340939524,9.79076645521442,2.72243706698453
-0.4012692675924054,-9.99194590532224,3.6369285255676287
6.912986771683595,7.225691239911073,0.1740870580995979
9.589928441233358,-2.8343028229219858,3.116326518900588
9.9304805239712,1.1770966668157243,3.609353751756351
-2.906428398897707,-9.568316150821989,9.331376395545076
-7.944671724911122,6.0730709845512045,8.169314070833785
-7.880437000759908,6.156193034421044,0.9249417262917214
3.9066814380575146,9.205315863213867,7.997229009092265
2.455104840125183,9.693939355287606,5.746319576537742
-9.997224740663397,0.23557904123176754,1.7087496795894885
6.310987752971301,7.757024789302033,8.384734423893688
2.801933890498601,9.599435737233485,6.417085740315559
2.5865795338058195,9.659689762890777,9.411598972995247
0.051654008039669505,9.99986659228279,1.7973686455905513
7.834148992496254,6.214990713055808,8.683563718729033
-6.619337559521781,7.495623407903057,7.397495292340674
-7.687512083787789,-6.395479494269115,7.353442807043043
2.4688502968857615,9.690447781788368,7.903086211548883
9.39559796453395,3.4238485493440693,7.524531571699249
2.1355635880707586,9.769307455562362,6.326130377998035
-5.06225319647834,-8.624012556504358,4.674428885579428
-8.141458989816673,5.806603612881913,0.45999259580255747
-7.499142161770544,6.615350847653919,9.86876878021154
-8.606594587844768,-5.091810051492606,5.878616174395076
7.728515685472792,6.345868364487323,2.959607493020876
-3.635932477708322,9.315578082843052,7.070964774351712
9.354332608896062,3.5350334428607306,7.308230363833247
-0.6177022281478088,9.980903964939309,1.350073603780868
7.191872311378074,-6.948163257784995,2.346821488483518
5.013172878818175,8.652635303020803,2.780258230844026
-7.68981532516894,6.392709931226107,6.326639721647603
4.829413454722074,-8.756527033210679,7.221060201187895
8.846980705688106,-4.661644816283452,9.611246613792158
-9.99789481483344,-0.20518107009813188,9.697333362998767
9.871798251499113,1.5961200712036236,2.50609129054486
9.403492607102049,-3.402106228232315,2.551458551702086
6.34439992353491,7.7297211858029025,8.704318540746085
3.0105032969030376,-9.536082523727233,1.7227886141837956
-9.674967309443552,-2.528835218277101,2.854277293908635
-1.1319277814886322,9.935730446096766,5.561642747937459
-9.962604815437818,-0.8640053769596792,9.421868180669176
9.94520763214275,1.0453923443232216,2.409839370855582
4.636352919389482,8.860261373507479,8.555241751048108
8.665728436548424,4.99050605289644,9.18442588726405
-1.6342783446672229,-9.865552913656273,7.268135092293607
-5.65786844243088,-8.245515428894954,1.9861551106538966
0.15171417759543754,-9.998849074184315,5.255095531261377
-9.521333029226549,3.0568312590916094,4.9136658682149115
-7.867456252775485,-6.172773453696801,6.116661227547202
0.2052090870036066,-9.99789423981926,2.489907527194284
-9.94967385595954,1.0019930938061439,8.777174069805543
4.455395406693579,8.952622619658094,8.821248672857527
8.795485226822265,4.758092015162302,9.184745782374412
-9.668971399820068,2.5516645683673933,3.9521963945569505
9.947049432810173,1.0277196024358022,2.719142475556129
-0.21215011501599618,-9.997749363166626,2.94477503238003
7.956153985996078,6.058020613295955,5.980537036611149
-7.836149953224789,-6.212467618472965,8.40958081866476
6.059358110818703,7.955135403301165,1.5418850728308298
2.285358448838366,-9.735354988921724,3.64794210446587
4.719375087163085,-8.816320025195571,9.5419808585727
-6.861233806658724,7.274851933226093,6.741678879231314
-6.149854251943654,7.8853847515419675,6.6897380426482815
-4.875036591077783,-8.731209437165775,9.48410856529793
7.272131242084408,6.864117364810997,2.2444795162733824
7.919081162751784,6.106402667508085,7.9371798839422825
7.201980785169951,6.937684971951582,6.6254397667120575
9.237967088233768,3.8288332526645386,1.5034185120436483
-5.132725776812946,-8.58225646902025,6.317527474214031
-5.890518000940181,-8.080952770595784,4.107510264792484
0.8884877759467068,9.960451268491466,6.151530244886629
-0.10320895566924894,-9.999467381389355,5.964983640736334
8.305247197066834,5.569817680643911,2.5294327230133815
0.3827328971919617,-9.992673092291524,0.3181230616181696
9.56594716404433,2.914215993146741,6.674976672288445
7.30782315507327,6.826105825005568,7.780976299852908
4.185691928989695,9.081849100023106,6.521540506026609
3.5584736587482912,9.345440878845393,4.091327375276159
9.077599687840866,4.194899749375593,4.548721024913613
-7.765792802280118,-6.300195405862768,6.847287210042099
-2.7481720606399573,9.614964915438742,3.604690281527864
8.852033534208651,-4.652042810341009,3.7651764382010624
-1.866220099461492,9.82431791730937,2.9744978617871687
5.0365492144154,-8.639049253868832,2.3750341117699216
-8.092674825784377,5.87440330281432,8.551755347120135
9.169699393485965,3.9895630128001653,4.2128432405466585
-5.417885377296283,-8.405148305561248,5.3043326665235355
-4.702054002325301,-8.825570132247357,8.212558859119788
4.027225884346723,9.15322083621103,9.533956986062922
8.748103890577568,4.844654613041224,1.2143651034536107
-6.808493557209494,7.324234805181823,5.5220509586243685
1.9118670436226217,-9.815536888398398,0.675402741108373
-0.10879948173859899,-9.999408116122344,5.705790559432591
9.352970390508096,3.5386360189031647,6.418351437309528
6.060525174702672,-7.95424632550408,5.061295689130938
6.519294599014314,-7.582796181571993,3.4888746237888557
3.9316502100138466,-9.194679256292634,1.7073621805410721
7.230750670873326,6.907694603531987,7.585875696742327
-0.5611218896281388,9.984244699774749,7.516190433473874
-6.983211834393838,-7.157845519147632,6.669601137432655
9.689100710097938,-2.474131651626413,7.344414820554487
-6.182716947649716,7.859644466847402,9.407805827084424
4.35302203412255,9.002843949022086,3.827841106545401
-3.5287593937471518,-9.356701189043136,8.294420683339226
7.495774343260569,6.6191666390049875,7.30147842829156
-9.981432122527332,-0.6091081869253642,3.6341397210296424
2.362693282919911,-9.716876064396681,7.204787359850603
-5.193442911906495,-8.545650982854857,8.16328566649717
2.3324346678452326,-9.724183694286822,7.837352977396908
-9.745715533422048,-2.2407652134072804,4.626419085417515
7.462678866058319,-6.656457326693122,4.945727691156474
6.288661067885306,-7.7751361385678415,5.695653336917534
9.909519919219495,-1.3421680113130574,4.621143498635
-4.227920410873637,9.062267321113303,5.054828409805106
-3.6946598799028223,-9.292442540679843,2.2990323196526177
-9.24855188857687,-3.803194442084342,9.015406939701565
9.48903467230908,-3.1556649042184644,0.672800613684974
-2.979218708727581,-9.545902570504664,9.347520047283929
9.909858615796836,-1.3396649636820446,5.060897700042842
5.286281551380748,-8.488535053796477,7.671481011817867
-1.605957175036127,9.870202710783095,6.301400354597941
8.454669116422005,5.340278094989057,1.5058117081602396
9.3939134932724,3.4284674828434265,6.105463824114665
-8.081559270478508,5.889685879377854,0.670925785469374
-8.191372338964412,5.735975872024628,2.539843540318741
-4.008152245143519,-9.161589140523109,7.020391947613865
-9.264110628278369,3.7651366863660822,3.545270348248264
-8.741366206521393,4.856801091612235,7.411813618965237
-2.103189847514088,9.776328168863484,3.135312747199909
-1.5587571136506506,-9.877766764843331,3.0852037558400025
5.8374545020200745,8.119367274415266,0.9298491345478965
9.947529257398639,1.023064843105299,9.237714427323358
7.65282110749202,-6.43695029472223,2.4924578113397464
-1.3842814970460973,-9.90372479105391,2.6270941844370608
7.267970587301367,-6.868522660814494,9.146901223561628
9.85650487352755,1.6879904259585254,8.71438596727643
-9.032770586555749,4.2905775288011405,8.96301686418228
9.985584684210174,-0.5367480921877579,3.7028371380046323
-1.6716498521858343,-9.859289364436316,3.393336958573511
-4.342581549184484,-9.00788462896159,1.8459360858955065
-3.679991090694181,9.298261427407354,5.705467999738506
6.980505751960848,7.1604845818451075,2.2781647618193093
3.2605042797030777,9.453523779101522,5.351942071606047
1.8335403046354217,-9.830469467491238,4.448705880817881
9.805730051617212,-1.961544838847966,6.260854405417669
8.361775665144906,-5.484588200201585,0.20573292761941198
-6.583359784554056,7.527242120930905,2.007061799956488
1.7016982552144757,9.854147504893563,3.9950307609183078
5.868291077880375,8.097108114954967,0.17412096534076937
7.6807763970330045,6.403567282287326,1.096830582202315
7.0184885890798645,7.12325893990635,4.521603082961919
9.929713146054308,-1.1835526338428124,3.863802250688634
7.8639377626026885,6.17725528579736,0.6288143815701253
6.546540203811123,-7.559286431924948,3.73189441406136
-0.508088803915175,9.987083947145734,3.0917562559693534
-6.382888017303125,7.697969898523129,7.040334113346823
-7.762575078535451,-6.304159591103349,6.635033091412213
3.184594013837427,-9.479365008640126,3.8835763551959124
-6.768234123561,-7.36145412596346,3.43270952620908
-8.540020871427796,-5.202695793103574,9.58469923655971
-9.038344104405354,4.278824120054597,1.7369262784548822
-8.644134308322437,5.027816828374219,0.1739143965900647
7.1400712033682945,-7.001384378166281,3.2770065359929768
9.07153913183053,-4.207989755176145,6.991352348553796
8.159208277510444,-5.78163647112174,9.155969030025654
-9.964089169460076,0.8467154321544048,9.982052756277376
-8.031450868937593,-5.957834920492644,5.485705037198213
-9.83764290873975,-1.7946537270800966,2.76238333943023
3.3107992282090115,-9.436027155031434,5.1208107454656995
-9.9881493225184,-0.48669611779345356,0.07959863196865147
-0.3060859544275207,-9.995314471716345,7.8444904844820575
7.567205210822193,-6.537385203374928,9.774813566840765
-6.564137518065892,7.54401077967945,2.9030593627256507
-9.947261934314252,-1.0256607675750693,7.832164959211324
6.774936468286685,-7.355286252123649,3.2142778142221564
9.766792616771081,-2.147035626389532,2.450562174422577
0.8828480841282402,9.96095272854716,4.102454163809799
9.44105469158672,-3.296435394553999,3.0600418866681736
-3.5905553638172316,9.33316196041638,6.606718334057147
4.311678704477957,-9.022717259747825,1.162035996103331
1.8725861995382518,9.82310648040114,7.721683876145578
-1.0089271340722832,9.948973114755749,1.0033643596194086
-9.926752789687882,-1.208130395455663,2.681170834189178
-6.961519853264516,7.178944304882437,5.120460774058402
9.980375151982635,-0.6261883308459136,2.4462387306891853
6.464931296755467,7.629198078974728,2.7588718243215213
9.795948671628015,-2.009823281492513,3.7771161576452075
-6.933347104594012,-7.206156945780312,1.7639583251542024
4.715448121709043,-8.818421004435582,1.2676164610817953
5.008408718591845,-8.65539381585455,3.8993393110660426
9.98615046231386,-0.5261168539675177,3.2355499606807703
-7.24620219985751,6.891484141952311,9.95795088634119
8.119097369923164,5.837829896263401,0.15122148705428273
-0.2819872459401011,-9.99602336897664,3.012627065442407
9.702169434466487,-2.422376573719341,4.821311109286325
-1.222654167897761,9.924974397232582,6.986897087011128
7.01908824537899,7.122668053726952,7.108077948051753
-5.017248879113614,8.650272463051854,4.882218461944976
-1.0816118376908737,-9.941333704919424,9.496294987762736
8.08968739963002,-5.878516630602256,8.277106590010971
9.557469781945294,2.941899278901741,2.3772048335457097
-0.6160977815879789,9.98100313212667,2.197637107648802
2.936182336239904,-9.559227651246347,0.578442278992265
-5.938291698963752,8.04591148957147,0.4578284069305605
-9.980885657810122,-0.6179979657897055,8.878975131765957
-2.2375683636410177,-9.746450011056993,2.023455599265568
6.280419405935927,-7.78179491412768,7.02716563109737
-0.3616978571450825,-9.99345659219755,5.184918552348881
9.329073405710501,-3.6011650046707224,4.433761120199609
-7.137943336935583,-7.003553734976045,2.154372149020709
7.308297635533398,6.82559782513275,4.791302129580681
5.322486790808334,-8.465880601666363,2.0173371560754116
9.626161363176323,2.7086929338873706,9.122849303828808
-1.0194156864853572,-9.947903882635154,4.880092305075995
6.078364043853832,-7.940622806202602,8.73159248725226
-5.5734838871653665,8.302787324718611,5.246870404789895
5.651299626549915,-8.250018941248365,1.4457383040274385
9.792716659081703,-2.025512388247402,9.192603269972704
0.06725696539929114,9.99977382247245,3.8784921211094003
-9.090612764543188,4.166624480934712,7.926844729024522
7.772784522583449,-6.291567433119285,2.558312170263423
6.943610783927773,-7.196267732743269,9.749419307972019
-2.4713931593371257,-9.689799577492904,8.686518685705417
4.4794499455705425,-8.940611175145023,0.40078250474429034
9.999625603666454,-0.0865319969624837,8.733824413447344
-0.8318478633679061,9.9653413956678,3.4071312510665375
4.370321102432834,8.994459042189822,5.206632007123998
9.279151386369557,3.7279149063298,7.74088346078493
9.67854743713044,2.515098309652284,2.3587328559138108
-8.227056546606264,5.684675943177677,2.128669813557935
-5.462534652325691,-8.376199327388349,1.336037925683835
-6.9209990783251465,7.218017162477689,1.2740758577386846
3.2719591493453577,-9.449565245291193,4.389432236941225
6.522190195066576,-7.58030573653711,2.969657823284667
-3.9086837504618495,9.204465836694462,4.038558966086427
5.121068292828397,-8.589217632601217,0.6182624075933596
-3.233830203728791,9.462681555111711,3.3887750317839185
-1.637607533234184,9.86500083969052,3.773323971268373
-2.3273440229535405,9.725403323195518,3.194867757532868
9.414705925368736,3.370951251327555,7.031601651628483
3.7738177882296458,9.260577698029508,6.658864558084429
-9.45678696946853,-3.2510275628007586,4.798834759970582
-6.2732020406961295,-7.787614278879374,1.5244808031144153
-7.044675801924301,-7.09736168204652,5.666225440875493
8.955178339757321,-4.450256273872474,0.17970842100508033
-5.009392436503985,-8.654824516828558,2.800782406848976
-3.1777591011559942,9.48165845699054,0.03100918125814256
-9.418720647049248,-3.3597174543178747,7.354555412991489
-9.991205068355312,-0.41931048409399935,7.177674335492523
8.119645569172846,-5.837067399903121,3.2772294176960837
4.172107284458477,9.08809775513933,1.6070573909994312
7.986160705673191,6.018408193464571,8.632196371473261
-0.7323322970747316,9.973148419965545,0.4961787221122582
-7.777955740804573,-6.285173386159302,2.826818194186216
9.121069379520678,4.099523554508533,6.709588366914474
-7.558176944493655,-6.547821109019745,0.6455094579746934
7.955155144659637,6.0593321929396895,0.8484712820010254
-9.45996070578522,3.2417809063845757,5.680357431898619
-1.37480109122338,-9.905045278017209,2.2206357880495577
-7.068844032119123,7.073290892475289,4.598879692636244
2.79622791307112,-9.601099387995207,3.1560379031517805
-4.612424703734768,8.87274130989838,2.4527810464196174
9.855487924014966,1.6939178786455948,1.8554188302135166
-8.440616828992946,5.362460959869178,7.4236610614168805
4.726771700132114,-8.812356625490718,9.307556391224352
-6.333571547059674,-7.738596220134251,5.473751420774108
9.99241954176117,0.3892964184648131,3.872029535062519
-4.762465412846113,-8.793117944815963,5.029221571660506
-8.664243229693984,4.993084142762065,6.656701133037515
-3.00421065148508,-9.538066804206375,0.08028094089913118
3.8616541371356212,-9.224295492076527,9.531824310324952
-9.702973259951081,2.41915479386382,7.2961615955942225
2.2263593523228704,-9.749016567547953,2.5672441404727886
4.610226102320772,8.873883889564942,4.91592369393609
-0.820740208699548,9.966262364087342,3.604908228115259
-8.680207722244283,4.965278833931755,7.372081975538888
-5.492499281735381,8.35658133689467,6.209731423026699
9.950833320670721,0.9904121486680629,6.334174807404775
-6.988074025279865,-7.153098728328084,0.5538267645139283
3.1679547148447167,-9.484938741219848,6.348768178840938
-9.775420396959792,-2.107405054255703,7.531087961524763
9.761331556877717,-2.171728858928578,6.376558133996676
-6.195527390669168,-7.849550327978545,3.0593344726175022
9.700797270730808,-2.427865793692417,2.369100515835425
8.215331577591062,-5.701607411093397,1.6255509909913357
-8.827472761489027,-4.698481099799094,1.752901312382007
6.27072858032914,-7.78960609221309,1.2544468752719995
8.066009104770826,5.910964144854387,2.9883523362365794
5.397840580369053,-8.418035226162996,9.688908126474745
-8.61478637477999,5.077938136380259,8.614652614988072
7.689767226450105,-6.392767788916931,3.52068150421374
4.678332437435328,8.838167547904963,9.804006227092506
5.071394942946812,-8.618639877187903,6.188513014670209
-9.566119780688505,2.913649316839642,2.4713656591133573
6.094821095351076,7.927998222481102,4.503550059763844
-6.208442672257199,-7.839339231420967,5.391492843269364
7.0804732352702695,7.061649861372437,2.3695059498996853
