-3.1541273341738654,-9.489545866890431,6.7534558735043335
0.15062502232456584,-9.9988655407826,0.09366660917886849
-4.410388635893955,-8.974880059386726,9.07921063546183
-5.577036901626266,8.300401158853642,3.068982119182163
9.098733323489562,4.148861519503946,2.7247737613140766
-8.681431556564439,-4.963138737602159,8.870838541640115
1.427458435298813,9.897593768966994,1.8983947395327005
0.15077644104158408,9.998863258632294,9.123812325687014
7.429082220475138,6.693932876973012,8.457428669807111
-3.929943746357114,-9.195408753854753,4.3960361352039525
-2.726024929342139,9.621267488465602,1.274514212265676
-9.39862896340826,-3.4155195224421355,6.368116862178448
-1.1608649924048926,9.932391075134365,2.37267002704437
-1.0323327419032222,-9.946571726479158,8.36222756516525
7.679394382688773,6.405224579601257,4.5128184871949095
-9.396638358353599,3.4209921897481435,8.86105100928425
-9.954889160030323,-0.9487791162914451,5.049290155128492
9.99967831258756,-0.08021000415171285,1.651574018868499
-4.231042644761219,9.060810015567704,3.264193166252012
-3.105389638764759,-9.505606513603036,7.581458695081336
-9.901676803168426,1.3988554198330432,1.3168351597374917
1.115495084338868,9.937588777808017,2.744458565255049
4.564599613947119,-8.897439539797604,2.495366058382158
9.650221811612573,-2.6216824725120604,8.448301885168743
-8.59819755154475,5.1059767786986505,3.911583391986835
8.369060534802005,-5.473465608261332,3.4264939417661444
2.0886553161717742,9.779443694312441,6.934658504020627
-4.66884813993234,8.843181387162106,5.998300678980203
-8.817469769368765,4.71722660747477,8.630646279765795
-6.180923937395039,7.8610545908381155,8.294392803640058
7.855346524203072,6.188176709232755,0.8243880320346342
8.018235526336001,5.975608675624872,3.82320160344632
4.576378975191827,-8.891386589020984,5.059922271976238
-7.755987860437806,-6.312262059574316,2.6985329294986036
9.973865694417546,0.7224978267931308,7.467043323811016
-0.06819415154383131,9.999767475181372,5.438790712538637
7.71718155142875,6.3596469164795435,7.254499212749339
-7.971033602783812,-6.038428877058282,2.729274591119517
9.716655013280526,2.3636021985288487,1.147153654321167
9.922414480469548,1.2432581701996723,2.0185371674435193
0.7996342736525366,-9.967977980934759,8.837611610630766
-8.165160313077603,-5.77322761215444,6.868087825174824
8.563988954775326,5.163147604173856,4.429640097658472
3.925390973496178,-9.19735319019525,9.005991426926377
7.006254264272758,-7.135292648823858,3.6498386355409385
9.439043879886626,-3.3021887640737346,2.2469041158571255
9.771465416993538,2.125667802009363,7.602330668624273
9.08696017579758,4.174584382123424,7.2893120517091115
-8.338222997443832,-5.520329450757336,8.734949617873504
3.877647541726562,9.217583714951655,2.8186452965653084
-8.66299881195177,4.995242895407811,9.796862710291679
-4.0750802144025355,-9.132016274962774,4.524491420923074
4.339624051932887,9.009309800860752,7.944745569488657
3.605167092421632,-9.327527552128707,5.027151231238283
-6.2097973102872945,7.838266221885339,8.658782098359461
7.823966323097328,6.2278046673799015,0.6132166789631932
6.03682194785004,7.972250671545399,5.851300834688043
-1.9912328305253597,-9.799744477007447,6.710316130862505
-4.868820332061074,8.734677359474057,6.87164545460745
5.021316232004582,-8.6479120773865,8.237091581463629
-7.345757984102974,6.785266364630605,9.673412860381642
8.485774387487767,-5.290711960091629,2.4599747673789887
-4.6594581750630795,-8.848132543923482,9.072133760971447
-7.5385268365787,6.570434775125825,1.0356738227721751
9.23472132744913,3.8366550541267324,3.6932305495308193
-7.0894120123458535,-7.052675897785628,8.346966949957988
9.472972073048327,3.2035605352867114,1.4074602783168222
-7.218812223260523,6.920169801768196,3.5146567853589508
9.510092639408454,3.0916238435277283,4.1739602749690485
-8.989043493290241,4.381449198123423,2.1020155611460134
9.900259177123596,1.4088535146636132,2.116442907042649
-1.6587827241707664,9.86146235981219,2.3098018556975006
9.739979318640792,-2.2655689952966904,9.619223768112299
-8.311878582992358,5.559916763908696,2.165311690461189
7.634113736320392,6.4591259053314865,1.6531310106141295
7.807209800421541,-6.248797894971628,0.5846789815994169
-3.778837258008549,9.258530605743356,1.293737062203526
7.322392392163316,6.810474994828832,0.3389406760403435
6.656242839953269,-7.462870175446632,0.6528359029655961
6.607762389520325,-7.505829481385828,0.1415167964170061
-6.2217771382014755,-7.82876038990551,7.241468488024735
9.369555966950605,-3.4944843657083813,4.909331996464681
4.626319368164925,8.865504447223637,4.199704371739318
-0.8583038978619268,-9.963097631706468,6.547097560064796
-8.885856919065443,-4.5871065841003515,8.681241983115584
6.192235274660626,-7.852147623628114,6.950655101549998
9.956242529058045,-0.9344702791292331,6.3093738324908335
8.776873014299456,4.79233764366222,8.70767950362724
-8.904779554342806,-4.550263848235433,1.2249525151306806
8.311660299327704,-5.560243076393307,6.177378849311898
-8.359246000095572,-5.488442976827416,7.961757290338394
1.2315519016725693,9.923874239100709,8.94699790696453
-1.7054810609046869,-9.853493509963632,6.207417636663015
7.419091105616506,6.705004635834494,6.912792890260224
7.9774056561112126,-6.030008208770933,9.295168315161503
-9.889072118097863,1.4853459674632907,2.2977238553540746
8.645622012904404,-5.025258203314812,7.366555992012515
-0.11712122967627375,9.99931410735552,9.306436676265399
-8.091542119027608,-5.875963421942158,5.338533539253048
8.83306135928368,-4.687966192618025,6.422294508630422
4.277442944198561,-9.038997834888885,2.661671398790102
-6.3381475050558675,-7.734848815856331,4.643220861210541
-5.8252179906384995,-8.128150795940094,0.8700464617147552
-4.861597138896967,8.738699746476522,0.8031099520654938
9.99974086780316,0.07199011590007517,9.791045421843824
6.373581040993127,-7.705677433807683,1.8037554081952811
3.1381699292251697,9.494834885099735,3.3820127595426674
9.934166572010637,-1.1455716998714716,3.8393216937755237
3.817880563843221,9.242499012725302,9.743160144614953
-6.950070167281685,7.190029531918567,2.9866056562528365
-1.74297014459628,-9.846931251666483,8.012082970341774
-5.693831857602751,-8.220722521612561,4.222950468883556
9.964496819648632,0.8419044667967223,7.9043856331134466
7.299783545473898,6.834702640878279,3.056165160691026
-9.870953427358094,-1.6013364527567204,2.4508534252832437
7.18871798756555,-6.951426738105749,1.2859167970416752
8.99501154062032,4.369183835009378,5.144866477033055
-4.848408832345712,8.746023770516068,1.694575011811904
-0.43129748564773085,-9.990694794601321,8.076674135823016
-3.405179195668235,9.402380264879113,4.797766873866567
-5.553582669905763,8.316112044009651,3.373172650374033
-9.397864806346591,-3.4176215533075287,1.257234189280193
9.144490601398461,-4.047010210134788,2.174440208262535
9.994626416738255,-0.32778466992499855,9.99303574053511
9.03043558978509,-4.295489850848539,3.7567522024891598
9.061420245223976,-4.229735587415019,0.28103829441376127
9.22022255720021,3.87136874964094,2.057509346568409
-5.89890427660607,8.074833022139753,3.718848587660313
-7.0008817694462255,-7.140564014854532,7.672223133638637
5.222933950085165,-8.527658585628753,5.021227805868474
-9.944388430471093,-1.0531565619188166,1.3007095715323969
9.931097744784875,-1.1718778023022538,9.974651346355005
-6.179614694902145,-7.8620838346172235,2.7752176320479194
-5.5907247938904625,-8.291187868995518,9.530010478139799
-1.0435385547674183,9.945402318896603,2.2099753331617746
8.495983034297355,5.274303013757504,6.850331788478706
-1.658889990229294,-9.861444316139348,1.1282952086800058
-0.7627558382319128,-9.970867742139756,9.481431843704623
6.30257071881278,7.763865167193707,0.1674715165637075
7.01081247312601,7.1308140115039285,5.496337665644964
9.40250394332092,3.4048376754016556,1.4583385124111725
-5.963246540760256,-8.027433630626344,6.7080503916091585
9.920038190261156,1.2620785648128976,8.329525324883186
-1.9291866587092272,9.812147513967487,3.6353034969135924
-9.114443624530054,4.1142335149166565,4.390175317255844
9.651406577789514,-2.6173175333156085,3.786128795944234
1.5424700387466426,-9.88032318193939,2.346369480609961
6.188670799556006,-7.8549572713492735,9.387585259497857
-8.71823518992426,-4.898201218117353,2.7772121055290198
-9.925108908264603,1.2215617704752466,6.678899984483665
5.881412443929968,8.087582312680702,9.434066932456034
9.797986629761334,-1.9998644961642051,8.702252659687375
8.870777239991817,-4.616200944331082,5.27579139750527
5.40455053919456,8.413728868301604,1.491260686075181
9.13591256173206,4.066337623019805,5.203942389405388
2.663360983274101,9.638802221893195,6.203814653506572
3.3362681071132556,9.427052302679716,7.667080417113582
9.434911290110865,3.3139778134046924,0.3510614065808082
-3.893839535513269,-9.210755325795697,5.661754277107303
8.730003586935384,4.877195646280281,8.15722809738152
9.162390285625253,-4.006320538084787,0.9849765555741863
-7.7265363726482175,-6.348278166727112,5.192491230457391
-6.037834395739696,7.971483915157997,3.216879107521451
-3.7427543901034817,9.27317580850062,2.1751882348865137
6.745964908800351,-7.381866799748846,2.6725679220652507
-9.999989075072618,-0.014781692335505952,1.863286549620804
-9.495241252546519,3.1369401581698715,9.131539474479174
-9.295467680726073,-3.687042255870829,7.566427317826174
5.85893298649334,8.103882048733201,1.9287100483388397
-8.74189906045541,-4.8558419266702675,0.9773528324744329
-9.983160834576454,-0.5800859858493121,6.990505706302381
-7.763368810448458,6.303182110089798,0.7347328724137681
9.994233251907898,-0.33956104967809964,3.4332146307392652
9.47314442493188,3.203050843240246,6.4269823474774554
2.7331010803266125,9.619259768023603,3.053940938543618
5.45057793885393,-8.383984740711236,1.2668957371417155
9.692257129298916,2.461737544815517,7.304206343558187
5.506650650794573,-8.347262941234312,9.07241515480819
-9.994433637708354,0.3336109432313892,9.468055454092196
-9.832641496051796,1.8218565284127917,8.630585737304923
1.8397857365536234,9.829302541054163,1.830949972470729
-8.750014337401078,4.841203269361406,2.4738149268231213
4.398306210075935,-8.98080745158293,7.269272934693541
4.153847817412761,9.096458009015116,1.3319513902199098
7.2028161425484765,-6.936817686565151,0.44347821506375396
9.584892448877127,-2.8512868574484402,5.085221121151519
-4.140604536958936,-9.102493837872952,1.2029885190784317
9.993731608252517,0.35401771454911923,4.8562466406605775
-0.6363364288838597,9.979733260427121,4.080724283154976
-1.1817618458267514,-9.929926431738966,5.814204910183718
9.97344356993043,-0.7283016939520233,4.878298837351554
-3.0960652209981965,-9.508647650813726,2.0979527871827743
-8.524576776495348,-5.227962392905688,3.9848624818805343
-7.546047120386233,6.561796465672387,0.7840447909757153
0.4531761677573246,9.989726290593591,2.6385092628270823
9.962970244112645,-0.8597813180838669,8.110314101458195
-7.053554929591449,7.088537427088621,9.093231921389092
-3.804705490988467,-9.247930369917489,5.44611050160637
7.0755337992549885,-7.066599002037703,2.396797090814281
6.243759498797752,-7.811239806917519,4.233349856596894
8.52616168754414,-5.22537719957655,8.037994461845292
5.26629416258118,-8.50094969948437,0.36227016331760287
3.2158472479165026,-9.468808081171984,8.8270500506777
-0.16107892831768694,-9.998702594779585,3.0279469638591627
9.78192743426331,2.0769919765870104,5.244761926147215
-8.736710995124332,-4.865170191028635,0.9704473726615959
-1.2127790721058804,-9.926185920194222,6.505893832585184
-8.38541861924469,5.44837173658557,4.081119142635446
6.831557539781123,-7.302726996174764,9.699606762714987
2.2268371074953652,-9.748907451436889,1.2894430581774308
-0.07604847657351776,-9.999710827279499,5.661636468457076
-9.016764888550735,4.324112734954842,3.9635598139382355
7.324799154280469,-6.807886408383451,3.4966344419118576
-8.114137207784275,-5.844722181015177,1.2498567338818678
5.915636715000797,8.062582852667909,3.3853462906292497
6.125709930408453,7.904155732808866,8.621729020336874
3.4395973945246756,9.389843969075262,3.4257185926597957
3.7313148007814023,-9.277784749468466,6.969498429977804
-3.4175862543706534,9.39787764306052,3.912670966944897
-3.8553665276732056,-9.226925215763757,3.2633721898375487
9.811032181377039,-1.9348507787382772,6.42110049148801
9.45831584284965,-3.2465768767887364,5.514503791943515
9.981566502894356,-0.6069020911953714,4.003776621370935
-7.110916348965626,-7.030993434644451,3.902162088788109
-5.9661432845999185,-8.025280948828103,4.489912997123758
9.680282174155245,-2.5084132491940396,5.088822163499821
-4.310740796527519,-9.023165397195891,6.248787560481642
9.993021508599584,0.37352527179039524,3.4327136903886126
4.699827187585678,-8.8267561655928,9.441785151624241
2.673441263324683,9.636011198185322,0.38200775411080357
-8.4560494861028,-5.338092083186702,3.6455725592872454
-6.810236473413688,-7.322614231009707,7.764443004381274
-5.623182103799136,-8.269209335088398,6.372282919673426
9.491984394852192,-3.146781251991062,1.7120686880774427
2.293395643620537,9.733464769639964,3.1964863210040506
9.880318068425483,1.5425027931076587,3.3239194355641644
3.435991678797157,9.391163995119918,3.529764296496495
2.575646771298812,-9.662610605291823,0.9838764732561467
0.3065760586201121,-9.995299451256123,2.83920199235125
-0.40958331608584087,9.991608554541362,4.041120865952918
-9.335276590100325,3.585053833113925,0.8647250034014564
2.553119048793533,-9.668587441952813,0.42743195511079635
-9.999984139890755,-0.017810163765249045,9.231260209100839
-6.636680421308188,7.480272253429322,4.303789323771571
-7.206721346343912,-6.932760448490269,6.298884472683847
3.440001919710273,-9.389695777414177,6.714926033527021
9.52046442279279,3.059535450740319,0.5321316392365816
-0.32176028650149113,9.99482217540815,9.10453741509518
-6.1093079815593345,-7.916840025316629,2.365590640902895
3.662728276563314,-9.305075043870604,6.451391399223683
-9.244529386057,3.812961635045469,8.6469006958213
9.561963900999103,2.9272591883859573,5.163089509328726
-3.9394802919875045,-9.191327163638668,0.96022264037262
-1.4351952630340117,-9.896474855066563,8.722468387642689
9.63055378619737,-2.6930343056039074,7.811696328116406
-3.95144198599894,9.186191062202264,5.650122685950368
-6.362134615214367,-7.715130792014556,6.970376578833583
9.931251930101201,-1.17057041687425,4.60854437319548
4.070340398406869,-9.134129900603396,8.048638818202928
9.96800917638143,-0.7992453062580994,2.983026110962622
7.497500885786809,6.617210928149867,5.505589814375301
-0.25067777928141066,-9.996857538795606,4.8528355007571875
9.345860469145777,-3.5573715143710087,9.840789267635387
-9.14294801577475,4.050493992199044,4.313846036531826
-8.567133022038588,5.157929020711314,1.4728422814232445
-9.95087797525643,0.9899633940487311,0.0558540509882699
8.964240049874483,4.431974766199185,5.8557287979102925
4.774279193494827,8.786709178216972,6.237048847526751
-7.80217386418725,6.255084571210321,2.0606857519677693
8.018148332705914,5.9757256726464085,5.342222900697263
-8.106407049853592,5.855438902600212,9.085089208665998
7.457745971932267,-6.661983564834729,8.106673327064767
1.4677272448612297,9.891702418425863,9.597462460298319
5.470932339084929,8.370716775829576,3.4626270522073597
1.357007978940413,9.907498642194813,9.086414532171702
9.917474205078616,-1.2820707436020395,3.58671804302358
5.19755437446316,8.543150971655534,1.8029075723635501
-2.5996736544662364,9.65617402961826,2.151890732866536
9.606320973259104,2.778236375602743,0.5348069033059655
-1.3455163819155,-9.909065832155775,2.31553877975382
9.9819658352003,-0.6002983132526473,8.767796656636818
8.596856396731305,5.108234537879016,0.3070851535113195
-6.0419706295802165,-7.96834932161549,4.495074407817555
-7.922073033221326,6.102520696917582,4.223460514645485
6.130868674371227,-7.900155017315393,7.101648987007404
3.0384530756435293,9.527213806098423,7.448478320019804
8.33873026055964,-5.519563174892283,2.116723635550107
-5.4672061514239045,8.373150953961874,0.580650324020584
5.791723736016614,8.152051040423002,3.746483460682808
9.691589500776171,2.4643646135353183,2.011252450108697
-4.406968174070913,-8.97656011580862,0.6652138811051356
-9.498834193455977,-3.126043660160799,4.726042305222961
-3.2377205363008206,-9.46135115767383,2.1232222058496353
-9.595835797147835,-2.8142379704239957,6.770263759605931
-8.99340674437529,-4.3724861498036836,2.9289479536439353
1.9481561164459218,-9.808398837014854,9.300701637164027
7.630979971077478,-6.462827916710639,5.0019257710746166
-5.683491669136038,8.227874722360644,2.7382162932147613
-4.9946056324672,8.663366238139012,2.472404106904907
9.755303734600773,-2.1986470943933276,9.45191254092417
-6.09764935902751,7.925823130397966,9.051544637144788
9.743710779766168,-2.2494666568474764,8.554291325765803
9.99830633936295,-0.1840389748250247,1.6515832036765177
9.765714772374878,2.1519328485385176,1.6728156561269691
-8.527602977415729,-5.223024742385433,5.6621224170833955
4.7541246150392125,-8.797630314162914,3.0597065035404114
8.82788160083183,-4.697712894770694,6.496305223221944
-9.42110482980754,3.35302606398713,0.07670380707271884
-7.189561342017079,-6.9505544893464135,4.644049006682595
8.329934254855264,5.532828870459384,2.512297979286772
4.75147138264008,8.799063569491492,9.017198805871384
-9.851479169247828,1.7170783843133473,5.061588834402267
2.963852842741158,9.550684599889955,2.9876326238951623
-6.388926645237722,-7.692958879506082,3.924649597367668
8.84479333641416,-4.665793698410128,0.9477680058386317
5.741132874136232,-8.18775874837017,7.8608537798786635
7.232368334207202,6.906000888962942,2.6488025134537208
-7.827128445446626,-6.223830034510927,3.4813725552996946
-6.904910180340117,-7.233409666363119,3.7150901047201765
-9.60137541248503,2.7952799839243188,2.802384051067283
-7.519579014828431,6.5921113036531676,2.1296093522764914
9.971715279832193,-0.7515945568996424,3.1172412438935595
4.2205524673314585,9.065701124044535,0.7838456869395516
-9.584209373702448,2.853582078902606,3.7951269937116203
-8.604696596703112,-5.0950168281062505,1.2503428258217864
-9.975310030915491,0.7022747233930399,4.757246613981099
2.3655018071060434,9.716192731753422,6.276392647894854
-9.782178108782908,2.075811033800637,5.61125328346073
4.860668223307459,-8.739216465045885,2.883248929861284
-8.416743883589731,5.399853923770054,4.520401872536182
-8.349866419445044,-5.502702134172264,0.8432692187932234
-4.416799431025619,-8.971726856413529,7.828566101546714
8.877140957907043,4.603951391299569,8.948419403902978
-9.81199909097483,1.9299414081026152,0.1291140587671502
8.297044466859253,-5.582029479943676,0.7861035101307734
2.7019505800450103,-9.628056037591099,7.441024652399236
5.899592874093845,8.07432993628209,6.983024580727372
-0.9928669384985622,9.950588688235309,8.03040765521961
0.16490313438224338,9.998640255368272,2.74931924967746
0.5649864574114641,9.984026757923962,2.068891113343957
-9.343854943564624,-3.5626359333536928,6.452432842165087
-9.999952752295428,-0.03074006927552464,7.100816755458102
3.4574464878881384,9.383286406339197,7.476774587833201
-1.6000900680026076,-9.871155544022159,2.5122884969516113
-4.0536681764015166,-9.141541134602502,6.903172377079207
-5.299419511161792,-8.480339193966106,5.933080229522764
-5.449651377448652,8.384587041964084,1.429821239964657
-7.100237912465608,-7.041776877066329,0.5867647771180196
8.525784188911501,-5.22599310792759,5.593588301886172
4.518685673085874,-8.9208452395414,2.800863170676368
-2.1582976373495653,-9.764310078475145,5.478151345909077
9.524306529259377,3.047553959605505,0.3343269298356255
6.684831150553187,-7.437273189052139,8.986577512383827
-9.573105180456508,2.890615367688471,4.753447697651923
-4.837682985389834,-8.751961113537337,8.497232931067366
-5.129125315329278,8.584408744907732,7.156280511807697
9.967105672015926,0.8104347739750327,6.162246896890546
9.792486610887849,-2.0266242808133454,3.64213893953945
6.822457612122475,7.311229180568209,8.60496668171455
9.92475304849459,-1.224449642246401,7.481222716464984
-9.752039207998111,-2.2130818524554314,8.11633375147717
1.0559616875178168,-9.944090954657169,0.41983274231382484
7.53812288930504,-6.5708982114879415,2.1966295000090605
2.370622156000644,-9.714944703572886,1.5743419916942858
8.66362162923497,4.994162619043558,5.270323710293139
5.876027064639469,-8.09149590221885,0.7758383287309911
-9.722599686020292,-2.339028718378238,8.241596107378214
9.676870348278797,-2.521543230365601,5.257808990671146
-9.51994264737022,3.061158602683255,5.106614144719205
-7.800291529155463,6.257431746346541,8.55407558100334
-9.834968214851527,1.8092540487339448,4.134650295483978
7.681893270450039,-6.402227407817877,6.413458076615687
2.360374430947373,9.717439608545549,9.840466146451611
9.960919292621591,-0.8832252520614242,7.768134427100576
-7.663878455028204,-6.423781365095991,2.925800268432377
5.754894309849452,-8.178092166420136,8.656196459495412
9.980120449090625,0.6302347353511386,2.6981455014765143
6.67320788302011,-7.447704112677829,5.0627921314293065
-0.13408670953542137,-9.999100997306007,6.647731061916495
5.9987367765823905,8.000947261748317,4.687262508223431
9.783084558677485,-2.071534821760463,0.8544329186406041
-5.8712104910177985,8.094991499079079,2.321630327801424
-7.682386795586802,6.401635191339283,8.582173355498915
7.188140227253981,-6.952024170939936,7.639614034960084
0.4592015839376118,9.989451131333952,6.768769201408283
-0.7375142430181125,-9.972766554038323,6.358374904144938
-5.020654326049879,8.648296372021292,6.761011710881237
0.08025766275270516,9.999677930192025,3.0936955843656233
1.3686067724753714,9.905903063443258,0.8681427451193668
8.523397254164145,5.229885204065869,7.1505013199618
2.5256204461268634,9.675807013479854,2.60457856586095
-8.65980891563037,5.000770895048959,0.9425509985253622
9.946192425681332,1.0359808064434943,3.5429855685246183
4.991034612564916,-8.665424022872681,1.1804763258729745
-9.197484524128269,3.9250832384066707,3.7554672795470303
3.1310984736427674,9.497169175514982,5.337651635392286
8.64711017007753,5.0226970550234995,8.16573743963552
-9.749655915317833,2.2235578546347714,9.4347158092385
7.957830711129482,6.0558178946368955,5.466655209648094
6.112516449179871,-7.914363060822108,2.743518136534692
-7.605070816546729,6.49329637975268,0.5999211778789648
3.0382459526930172,-9.527279860009598,9.771469873081339
-1.461819011279479,-9.892577276840544,8.799483463986483
-9.862150623886787,1.6546857924601452,5.544549095568386
-8.803309007975525,-4.743601006629563,0.9860668454542187
9.986853275089265,-0.5126028305021519,3.786079967899878
9.912538042275745,1.319692979611593,8.37698792812166
-0.6952126943231827,-9.975804694843013,9.582288045505997
9.952667898874592,0.9718033210023422,7.631468252943353
6.63198788009961,-7.4844329617020335,6.787957934844031
-4.3359437725991095,-9.011081599944538,2.692084500863119
8.858052858604523,4.640571037509097,8.714737310089033
5.550095655374684,8.318439650330527,0.9472049959934725
6.386567893177812,7.694917189017067,8.860242866785065
9.914345810010959,1.3060425565494136,2.342232773329406
9.718040873736772,-2.3578977026964982,3.8170533418258543
9.9676282007095,0.8039826194767361,5.073373128618685
8.961727265178624,-4.437053574677015,2.275621944168983
-9.776708911529768,-2.101419248796963,6.389746029403427
7.238312546217495,-6.899770393518208,4.326838882177958
5.959191203720393,-8.030444582804957,6.218223123219814
7.38194249773478,6.745882074283332,9.454664191676441
-3.644755752887667,9.31212948265821,7.407585007717431
-8.98052389039024,-4.398885160370768,9.290575745792022
0.3336203742917749,9.994433322898173,0.9804090000702104
7.644329924029694,6.447031876188002,9.050608004968128
-6.89627485188431,-7.241642988111748,2.309692363883935
-2.87190552750266,9.578734709819438,4.375581750678603
1.088610005457694,9.940569815459142,6.831104884583736
-7.705531949159741,6.3737569282549895,4.164892641480006
-9.872507573176456,-1.591726803686333,8.320955794004142
8.716441358795137,-4.901392663181106,1.3606116142980706
5.093559894005589,8.605559110608548,0.18834778938184082
-8.19756566666976,-5.727121191369813,4.868207548589872
-9.971731121965526,-0.7513843432120154,4.169728616621083
-4.22714093138622,9.062630939534017,2.1898899383290473
-2.357518993472985,9.718132752510337,7.855522806564705
-2.5964227810279543,-9.65704865588649,7.169303829696519
9.246878246377253,-3.807261837157398,7.973808463873983
-4.701387259353014,8.82592532472336,4.397293654547266
-5.619650142406806,8.271610017218363,4.924208524930574
7.30165832491204,-6.832699737749545,7.565215681318734
9.912003863751913,-1.3236991368763396,5.147134240713528
9.345675895290462,-3.557856385548303,8.18104395090177
-9.993729728152362,-0.35407078479270104,0.49988182858409336
4.668140818789006,-8.84355478842959,9.38934024052949
4.44594614447129,8.957318956052692,8.714524387403815
6.4157688581058725,-7.670587328188036,2.60339857891147
-9.316078472206945,-3.634650175695361,1.6833830886171153
9.870120401080477,-1.6064629681928384,5.361377213821472
-8.479003448045564,5.3015564250540095,1.9039372657678622
0.9598238661392624,9.953830325356641,0.23144022043788404
9.246888409058249,3.8072371544762253,7.0437093707095695
7.000893730475054,7.140552287785243,9.571971649013488
3.9184405994488825,9.200316476545288,2.844738693861072
6.318670588168703,-7.750767832815777,0.5017442285951235
-8.874183846294002,-4.609648691839172,0.14614246216438587
-9.598002177568228,-2.8068406081207318,5.38380795346465
9.90720180629773,-1.35917341398771,5.92919464260291
5.31715245798824,-8.469231945017778,3.2742761326429504
3.2076422052827587,-9.471590757781334,6.93242970577883
2.56621188189031,9.665120618866844,2.079216598890662
-6.157089526887147,-7.87973657921993,3.631244234258666
7.8065168038461525,6.249663622249412,6.667474807614755
6.150112627618073,-7.88518323614694,3.1430930506435004
-8.164837435724657,5.773684235233966,6.591481587300026
8.347201476036755,5.506743821756176,9.047566861144208
6.735474533218886,7.391439833507395,0.680056148105358
9.898221191567666,-1.4231012763681903,0.715498002225895
8.703960824660651,4.9235217032905085,5.818340622918728
5.618017087768106,-8.272719262826799,2.4642950292799193
-2.862759507874623,-9.581472120716809,5.38270091920419
5.817746276412235,-8.13350036966198,1.5868256084070742
-3.516420935190208,9.361345192148189,0.1676805709912499
0.11093757648264356,9.999384623771814,3.011902044818575
-9.677168020835378,2.5204005825505376,3.302023083609762
-9.798132201684458,1.9991511594459443,3.9735148840639134
9.466384205798803,-3.2229753440265334,1.08970529116457
9.328405789088208,3.602894035925231,9.743744182408804
0.8772602003785086,-9.961446408069055,8.972380462863352
-3.3088648468075412,-9.436705644744956,4.3569932296614455
-9.9557356930693,0.9398546748013366,7.921591194177161
2.956949870928744,9.552824056833376,7.450970386681871
-7.204719547806743,6.934840750691497,1.4354131059014574
-9.731308634052736,-2.3025273654857354,6.390906645065822
2.2906228684203174,-9.734117673146852,1.9914584342511121
9.833047002250556,1.8196666319772241,2.370466240723129
-5.256472710019717,8.507026193025267,2.6796112587157364
9.394595316684642,-3.4265987269779625,7.770208862939368
-4.378160130238263,8.990645909721508,5.6314934690109375
-0.7718922622224089,-9.970164609248995,8.301462935537065
9.859506430902057,-1.6703691026240208,7.316166513471426
5.649079720803977,-8.251539147819711,7.828978955688743
-9.970431252462994,-0.7684403945064422,8.122220195885452
6.0960695692398925,-7.927038274600883,9.226011569706525
-1.412550839164579,9.89973232601647,5.2993421987150136
-4.470051819050378,-8.94531367448925,7.680344009427792
-9.228104844099423,-3.852542145948406,2.75012993492586
-5.8929207482187245,-8.079200768344187,6.0932615748904535
9.154626687683708,4.024029101429215,7.229004230788906
-9.565097792187096,2.9170026098544266,3.814173951029165
-6.103213425903077,7.921539362893832,7.729972365490301
-8.698491071036038,-4.933178801453109,8.909440699935606
4.948415720649951,-8.689832095939739,1.738359014839822
7.759787877197773,-6.3075900390636095,6.544570022115108
1.4957066159763766,9.887510390332062,7.022933662758019
-6.312500000414439,-7.755794204642598,0.21792883833745114
-9.890831727870351,-1.4735832962385242,9.20359365547633
0.05958498346577336,-9.9998224799116,3.398005295795424
-9.096306587837681,-4.154179396711318,0.8218400359948963
4.7910445297205655,8.77757895516951,1.4787336393088968
0.2930307276752245,9.995705727593132,4.81899204725112
-9.466870303845377,3.2215472447522076,2.2906974441924213
9.800069912027254,1.9896305484632413,4.117455917167119
-9.65295111578495,-2.61161535381191,2.9610442409132975
6.392892659223889,-7.6896634157576305,8.387312382012757
3.385869176909188,9.409351195319276,4.804498547135178
4.6872869850419505,-8.83342180130986,0.5131669802505923
8.612518658141575,5.0817833841244395,1.82124377883644
-5.244660638633097,-8.514313524035433,9.934380202064979
0.5951743959849882,9.982272658987226,8.154046934701858
1.5530627593988093,-9.878663678118036,7.91327060091671
-9.994369751591034,0.3355194010518151,2.235088405515552
8.21766511345013,-5.698243596336039,8.982382054713936
7.5568870129503685,6.549309786038683,8.896942027950232
-5.699957043969,-8.21647672040201,0.5836097194732071
-1.9754124287369277,-9.8029457683082,7.21824161230397
0.8517298251918588,-9.963661791975811,4.911281203180141
3.621320952853699,9.321267862068055,9.280797118519216
-3.3299497905452102,9.42928599589852,9.985310605924784
7.380500265343542,6.7474599541800835,5.444329508472713
9.814953514640049,-1.9148596568560752,6.7568307086376755
5.972261186843177,-8.020729163618887,2.1689693601933655
4.513751498944355,-8.923342838072378,8.89822698524909
9.982886809084496,-0.584782828926075,2.4564242790037136
0.6369228951057471,-9.979695848355806,8.732780272757466
2.4214897712397536,-9.702390802672362,1.3758081624403273
7.755664131808555,-6.312659809824877,2.6865207136452787
7.3284036039959215,-6.8040062181732015,5.527983243898213
6.0174545027157595,7.98687932222253,0.8765563646426289
-9.718206314516936,-2.357215736516953,6.440144452051947
-2.158414433182584,9.764284261256895,2.475639661406918
8.748188991562815,-4.844500941056694,3.7296717060175046
-1.9230100573022082,-9.813359889432087,3.851736006250385
-6.700853525756819,7.4228405631774415,4.754673343955785
-9.01001207473647,-4.338165789029165,0.9828073653875502
-8.747420118401783,-4.845889110594644,9.974835846638916
7.9575335052568175,-6.056208427119657,4.242845133433379
-5.531170293014779,8.331035661289105,1.0688605918596972
-5.593608443484528,8.289242702501754,5.680939798923506
9.542870342027227,2.9889171342238923,3.847886905878112
-5.080627717890501,-8.613200450018725,2.5658834478671366
8.469606690407915,-5.316555511776162,7.171852795827771
-7.604586408569026,-6.49386368463392,9.513541219308673
1.8964344549494343,9.818530254477023,8.64828353030652
1.9459286071634365,-9.808841004717273,7.02211718690131
-8.688647126520735,-4.950496046943476,0.12865872402879175
-7.283895300377516,6.851632597646953,7.6300421795223
7.217297843362792,-6.921749189344467,0.5407648478355986
6.5501655536929,7.556145261918605,4.709057655640633
9.958862566113684,0.9061216194637307,7.965166712383159
5.791684364723611,-8.152079012093544,2.6382347968741735
9.978996191350538,-0.6477924150616907,3.053300384615482
-6.829894951366003,7.304281960145376,9.526001297479272
5.034305488700771,8.64035695133235,4.273408589609683
-3.865956793433133,9.22249305075955,1.7408492196034664
9.689228369039558,-2.4736316646984884,6.1909070802755375
-9.987580633262791,0.4982299610360783,5.027833555734491
-9.775926144876161,-2.105057721281467,2.399521684339314
3.574094524782975,9.339477947290007,4.8220659189120365
5.34153399454366,-8.453875713844772,7.95434638689013
-1.2605366205526418,-9.920234242609684,1.9401975347090872
-4.66880348841633,8.843204961242927,6.780700320172631
9.812928607525482,-1.9252096362754887,8.937095847325878
8.111939848873304,-5.847771531811188,0.0036417491752616105
4.310741928361042,9.023164856471931,4.245765307613278
-1.7918866283267374,9.83814730074844,4.581991895086053
6.327049792366979,7.74392929493219,9.609545024827725
9.072313997676693,-4.2063189046432905,8.787117560528031
7.770387914602379,-6.294527119379286,5.54424415850971
7.945496979275694,6.071991251008257,1.0185143878767255
-2.0862551978211696,-9.779955994254992,2.6240501891254664
-0.3129815071818804,9.995100928763158,4.763974649720126
-3.236884363724148,9.461637258734775,2.530594023240199
8.703849011769226,-4.9237193644971144,4.0937312539298585
-1.332124614412019,9.91087503763808,2.7210960313097186
8.821576175463012,-4.709542841986195,9.871614266185164
-8.696759485762474,-4.936230793510411,2.3328478929130894
-9.97763101700934,-0.6684903053995208,4.814983255266776
2.6170884481273604,9.65146869935754,2.2453218984986267
-9.999865814874525,-0.05180429040010254,1.1721431195649201
-6.315661539434591,-7.75321993234467,8.747674761472476
-9.879534033090621,-1.5475164907050787,1.4593887571426145
6.495261671694632,-7.603392388678534,8.826087126937825
5.9526680586089,8.035281139077671,3.6755468030415415
1.1172808575178115,-9.937388162159325,0.8120042325092636
-9.955065466763608,0.9469274272354032,3.900177517987311
8.787922451356307,-4.772045576998166,9.815272546505138
-7.718145116980391,6.3584774870429275,6.739814026714324
8.747534117859306,4.845683321977139,2.4797621623462107
9.996520171614797,0.26378866256618005,9.730041817756792
-5.594868094471717,8.28839254653533,6.184067628618801
-9.26548080964755,-3.7617635978425064,4.487289422938608
-9.645455735200681,-2.6391634394793173,8.581348403842124
0.731598007821705,-9.973202311943307,5.3669205216390825
-9.954729615815062,-0.9504516168719486,9.861460840612366
5.712114422619958,8.20802953350541,0.7931709871626214
9.334079945261838,3.5881682758004496,2.097338397387621
-9.410448944068667,-3.382816972742821,3.1515596050611325
1.4462843663905611,9.894860359375176,7.898762470052764
-7.514990458105894,6.597341768816997,6.244799317316547
-7.524371356982548,-6.586640697823178,9.918866092807503
3.693002040017321,9.293101523841646,5.7294879982867855
-8.3812934713654,-5.454715368087298,0.2016452178687933
9.02736970140242,-4.301929366482159,2.288436147138725
0.2367901154727851,-9.997196128976084,9.794129728296157
-9.282838344007557,3.7187245500336585,2.0891735145014136
4.080209555498119,-9.129725624750279,6.186468461178923
-0.7883319416927003,9.968878209192196,3.9134510067574677
6.029781603497533,7.977576938778009,8.103699703290083
5.507068443988073,-8.346987309995791,5.734642714522552
-9.415593297902335,3.3684718862559375,0.52573364361575
9.880704853074857,1.5400232486631347,1.7033955116634425
6.267566927431519,7.792150204543456,9.54632439931714
-6.128412672129267,-7.90206037183249,3.315738067680307
8.204976511237183,-5.716498967903879,4.181323693158907
9.809429318958573,-1.9429607397875892,0.42219562686442225
-8.466625976597008,5.32130102253319,1.2643585650783074
1.1512939663201562,-9.933505031111364,8.576335485065623
4.023468674086987,-9.154873009968009,3.7168422107487196
0.35129974441564216,9.9938275195029,0.42198606589417653
5.760715746429047,-8.173992542744607,6.963654231272233
-0.8258022847932066,9.965844198382309,0.24478124369193055
6.120857856682735,7.907913700735817,8.043883096724514
9.651315450663335,-2.6176535431158925,8.582038991851379
9.37016002016453,3.492864325522861,0.26819480052316935
-9.93338537063709,-1.1523259427839996,8.697905861919109
-3.1239269569614474,9.499530534061648,0.6170959732225789
-4.358271790415175,9.000303717145956,6.268935928405906
9.978908258950897,-0.6491455610582085,7.460008323437515
-9.531437604724637,-3.0251772158405954,2.5357591063842966
3.208920461569218,-9.471157768262673,2.1557401490362924
-6.505020268909591,7.595045180976569,0.8935071630857339
6.738238016863108,7.388920653796516,4.016297548926707
5.236862775588751,-8.51911194137352,5.980738902938651
-9.960073489844422,-0.8927127628181175,0.3928413115407492
6.681805956634678,7.439991206841667,0.434661811385354
9.9729731290799,0.7347155685367295,7.596572864835528
-1.6246125679917334,-9.867149233893409,4.143060571822033
2.8846684965996907,-9.574898833132666,6.551357231710888
-3.139651256255012,-9.494345158519165,9.287434467139118
0.7028852324088785,9.975267031516577,0.7200442959936237
-0.8397551460746288,9.964678183194938,8.678077518034861
7.064850741534796,7.077279420782766,5.908045078505507
9.29659054796815,-3.684210116623272,0.38675279341065516
1.7002735405982397,9.854393430705997,6.3630072573524
0.3236222890421615,-9.994762058900408,0.5630673335081204
5.050980056479062,-8.630619935384177,1.6372978530660542
-9.337924212902557,-3.578151952347492,2.2782307420437995
-9.998360724908023,-0.18106025134389453,8.853564822699147
-9.935501963381562,1.1339315392214468,7.527164057678744
-5.038286834739597,8.638035990367813,0.586620727799605
4.449802813905752,-8.955403671379447,4.184762054878245
-6.955344677530966,7.1849273076866735,2.5005528227884035
5.4230595738275325,-8.401810808314927,3.8380681732393054
4.153535837215527,-9.096600466601043,0.9420943407432936
-7.38275016404981,-6.744998147903564,4.676919989214855
-0.4246723998655794,9.99097859835524,9.005061008612284
2.7907608886006408,-9.602689918072798,7.469771507506361
5.7067530030838585,-8.211758043305547,6.93515723984341
-1.746981752549992,-9.84622032844367,7.4601000560551975
-5.929759405477083,8.052201773003212,6.4590848043403835
9.923591041196602,1.2338317742231049,8.53809245471427
6.855679834302597,7.2800861265191585,2.440311077951044
7.376998034041289,6.751288766283883,9.616914010808348
-2.993610067309578,9.541399203728075,1.3433757628599041
-1.73006349862642,-9.849207089442302,3.0486735084408845
-1.8758621493064735,9.822481417483024,6.865596682816525
9.539626298250582,-2.9992549224308895,2.0542116093222793
-4.2579216898675885,9.048209926994131,5.590453318423922
0.7786976820565233,9.969635395537782,1.2473044687770563
-9.993589099110356,-0.3580180416441183,1.3349633261236737
4.44665586393114,8.956966653268662,8.90788075367358
-8.882544862365242,4.593516819177749,2.5364837000428797
4.506259483173856,-8.927128624048478,3.147655616177797
8.709360516140693,4.913963715768516,0.7132628201277325
9.99994397710672,-0.03347319415674877,5.624607667637919
-2.1526538399107356,-9.765555869765816,7.779053201693465
9.9424311460761,-1.0714769738710703,4.135636568826845
3.064815515380755,-9.518765983922568,4.375455399477262
7.806084285280994,6.250203847162835,9.61945161371198
-8.732999576097919,-4.8718290614381745,2.4407503757242885
9.720507921933045,2.347706484984206,9.934869056191701
5.198066639696858,8.542839294360547,1.0225430074304087
-9.591091599453094,-2.830364275301024,5.416269976609723
-4.665709908149448,8.844837536834472,8.778772576963348
-6.857841768990993,-7.278049620020633,6.844656245715221
4.180598202547659,9.084194992890414,4.840924341724206
9.573066722909893,2.890742727866882,1.193980112148234
7.335170682602983,-6.796710311399309,4.01008396783923
-6.936050100062737,7.2035553034192565,6.80544584678457
8.836342947863917,4.681777793502767,9.46977849434036
4.813725509425383,8.765160963719225,9.44370781326575
9.993920237999363,-0.3486520851891599,6.12966642810033
-9.96106914220974,-0.8815336318694394,3.5874625618048714
-9.32039027543251,3.6235790475196055,8.332340685750482
6.294029266257332,7.770791182080252,9.710925943531674
9.014873607881208,-4.328054278070787,7.553945317707177
-6.070684550753977,-7.946495396414509,6.0552263939840785
9.057810762035187,4.23745963982662,4.717693569937041
4.106691392091049,9.117844362025778,0.3738796121424337
-9.815217625107204,1.9135054146212616,2.9853673750563137
-0.07941627384004583,-9.999684647800118,1.6164850885797943
9.521331985360217,-3.0568345104955315,7.4998440436888085
-8.18877723394713,-5.739680079306616,0.06804426447819312
-7.989873871281075,6.013477822443512,7.469735136237246
9.221004907800335,3.8695049412453426,7.570684627317963
-1.2348719675618205,9.923461655275844,8.314051019227938
-1.9831065674035522,-9.801392163479681,0.9393150386036142
7.957076665833815,-6.05680864267999,2.7906828830391115
-5.847350949907677,8.112243023271294,4.262011745969467
-7.2240877232797285,-6.914662433290514,1.6443638286594653
6.506843226419447,-7.593483471161267,9.334161390478087
9.856380811939248,-1.6887146857997686,8.039387613843768
-9.67981152798185,-2.5102288307542193,0.44839850103297385
7.335031430942256,-6.7968605920004865,6.568415689976264
-9.984803701236347,-0.5510853362020806,2.187405169486858
-1.5562184852561536,9.878167037773103,6.932260654278913
9.212413418403585,-3.8899150387145447,3.307577967355172
1.3381724471211855,9.91006026731249,9.00201998288525
-7.272591680431137,-6.8636295245098875,6.486282599576935
8.596552386108383,5.1087461350995165,6.267946826148597
-9.989361004735354,0.461158017465496,3.4855028032104993
1.308675485121121,-9.913998611793478,6.367653866732392
4.2907132085253945,9.03270613726505,1.3428571683741608
-8.76387606409218,4.8160644029365045,3.8603688256360758
-0.3693797817501484,9.993175600220093,4.739686753395773
2.8271211423862734,-9.59204806317569,1.7276182865730472
2.5625986157338776,-9.666079263829715,5.657106174441555
-9.872649197530027,1.5908481456473753,6.549333541946671
-9.99906876156081,-0.1364694162761316,0.6988363606432346
-9.920187597368084,-1.2609036573126615,8.517617073926642
-2.4643254767853953,9.691599452333264,3.032114318404436
9.950568189506706,0.9930723568689392,5.10643351613864
4.767925122041743,8.790158703379776,6.972410547195294
-6.856569614165018,-7.279248115438089,8.023642295047187
9.389707458195012,-3.439970036136502,1.1891600293310745
-2.6319729098713984,-9.647420308129167,8.812111839408875
-1.3527035375326646,9.908087259382944,9.582264968919139
2.753335299251905,-9.613487646525241,3.704260344913526
-4.0456065893998625,9.145111662730226,5.309206912121182
-8.347524216437288,5.506254576024709,1.4597200337297844
5.51067930440174,8.344603861420765,0.04328741581313578
-8.26921143787415,-5.623179011531763,9.999478719612062
-3.86561466937797,-9.222636457536957,7.154494361888
4.225572506031167,-9.063362344972944,0.1675498922354668
9.667163105994936,2.558506885292737,8.060619566100083
8.527701635313742,5.222863660777231,8.428522869920517
7.47703302110261,6.640329600354276,5.796029855507754
8.39952315334727,-5.426602140970273,6.413252319658361
3.499009466798486,-9.367867033175406,2.697298903940879
-5.244486149256068,-8.514421003818244,4.292057658512056
-9.703508876067362,-2.4170054803582715,9.954864309941806
-7.762196112579581,6.304626199058471,9.519505333850656
9.895123970561936,1.4444797012109833,7.854330989881641
8.880546496697384,-4.597379027227992,3.0387387963572143
3.9390302190278943,-9.191520055659186,2.4543096994650417
-8.702426159454518,-4.926233747929719,9.609645711376594
6.561664227409716,-7.546162108431785,2.456376288203468
5.151964130329301,8.570721416531997,8.129912347740806
-1.5203197043619014,-9.883755763702831,0.0029007925495616593
8.517876383520699,-5.2388721987714435,2.5277136643058764
8.90879847837447,4.542390303762186,5.225504099956909
-5.140080227189489,8.577853767584037,8.76265132090484
-0.3232837355037343,-9.994773015249459,2.0278186359841452
-9.919638404398656,-1.2652169481868627,4.575925668307395
3.4684834193872414,9.379212268065789,3.1347504469665157
-5.669716237866624,8.237373233141227,4.849195609707296
-4.096611275869043,9.122377763194343,4.9448252341989996
3.0189577687452935,9.533409358174673,4.73040799444637
-8.701103302249887,4.928569906532333,5.973083096070426
-2.4471704295418135,-9.695945383962108,6.671809587285056
6.558000772804603,7.549346055380839,9.757133316442012
-8.940125593206167,4.480418995774848,9.028699124883087
-1.22140210281014,9.925128558525122,4.296423400019812
-8.273339935279516,-5.617103018043121,4.255012946118794
-7.869377309815913,-6.170324201835301,8.849637186091043
-7.04051915075139,-7.101485062147419,6.981788839860538
-0.4060928705330681,9.991751026747124,8.720571970989706
9.375826815794877,3.477624407583672,9.582524061615796
-3.3920719276500506,-9.407116882320985,1.1530777719486673
-6.531695476203428,7.572116890681474,9.819042584905663
9.616941413335557,2.7412474993096687,2.9014189183991346
3.674821873126453,-9.300305597172137,2.9353721045731573
-9.564023607898717,-2.920522629180608,9.277171569939659
4.9556046911437175,-8.685734404476941,7.7843123004771675
-8.882242190944305,-4.59410205169725,4.834407455876829
5.165394500194033,-8.562633920550688,9.823681392081848
9.991631374070346,0.40902626406273823,1.5383345742813925
0.9534682580598124,9.954441133527908,1.0800746667282701
6.221463750656159,7.829009439212051,8.649911756252031
-2.3596373045217574,-9.717618627581002,3.67022213050755
-1.2070559229864548,9.926883498801793,5.3878662869359175
4.326673405965165,-9.015536436514125,2.61650278696705
-9.77064885075932,2.1294180038582318,1.0275557226199938
-1.5718495209671342,-9.87569182809161,5.479286898612021
-9.47551143483075,-3.1960417782613066,4.251437707537567
9.626241571177676,2.708407874255786,2.8064618553546925
-6.5196444055827065,-7.582495422006803,5.559187036290116
-6.851461991998823,7.284055777669163,0.34095647543711305
6.5737591812094065,-7.535628057930211,3.0868804025519356
1.0138241308147835,9.948475291811185,3.9205052587669256
1.8181718824002875,9.833323497477798,8.708679435830746
9.97007043329829,-0.7731077253987639,6.92570576926326
1.3655907744408178,9.90631928804852,9.509967983047869
8.533249713818549,5.213794138783737,3.4231598966075794
-8.627499749315245,-5.056307751271218,5.435689881336824
-8.213117369899285,-5.704796496656007,7.411988196757147
6.885149872232742,7.252221124379307,5.840094374928127
1.8522176691737382,-9.826967472521755,1.79559817818842
-7.513343054100049,6.599217843912001,6.281754331676267
7.616738826000448,-6.479605671373631,8.87972389433795
9.732777036655603,2.296312512431479,3.804409327255801
-6.003137513950848,7.997645902926437,6.36367037718088
-3.266717366624282,-9.451378610900916,3.6185178217571745
-8.54531120373031,5.194001966826855,4.91846870088478
-2.384271581877318,-9.711603833757442,2.6200654158083427
-3.813402243621936,-9.244347642118354,5.792393525183563
-8.801114505671045,-4.747671372164118,5.51839708945792
-7.552075213154669,6.5548577387198,8.673682126765216
-3.6897064447484205,9.294410489728866,9.675879277253339
4.587747207587147,-8.885526183590724,4.648686097300715
-2.905740839884685,9.568524973653266,4.442901522917739
-9.932402898618633,-1.1607638258974822,2.251646410675874
-3.9649479995435684,9.180369674523758,4.928929000428827
-2.1725262872426603,-9.761154108569315,4.247878444327457
-9.05553339405196,4.242324239047481,7.946142166820148
9.18348500013873,3.957727031040287,5.60789311119044
-0.4758481771260562,9.988672009447793,2.555833655738752
-9.702143902483485,2.4224788328285833,5.393700430065539
9.95718487671867,0.9243751028911431,8.166520794277226
9.92035452856044,1.2595896266921085,9.010050615326916
-5.017141052941669,8.650335002465937,5.856167714878248
-7.1648104497641265,-6.976065597380144,1.3549581305019653
7.013662228501111,7.1280110931799765,0.803402057497421
4.108508532468338,-9.117025701325781,0.6278586472963998
8.951122501733828,4.458408455823037,2.867148372213072
8.087268175762324,5.88184439213602,8.692553242031382
-9.119752304385381,4.102452669642579,6.890064777389695
6.423599930024206,-7.664030528318177,7.62486458946235
-5.479423039126327,-8.36516127509157,1.518928175081622
1.9982243440464384,9.79832125779004,6.119591874922424
0.5956904732616637,9.982241875453896,4.18359635685603
1.7003785282121942,-9.854375315604482,5.343765641064568
9.508178689945126,-3.097505125108493,1.4203642560191898
0.9899225149188441,-9.950882042033095,2.9310817045921986
-7.801536717902567,6.255879221917414,7.244181414145775
-1.0334417834577354,-9.946456559006513,3.4495800324590076
9.841290486120135,1.7745426362308967,3.1563309439462106
-5.250546663030104,8.510685033494275,2.241715131350576
1.5654207602482697,-9.876712906801723,7.08651602151975
3.3541272448656616,9.420712840610836,9.169693739173105
8.821121266055874,4.710394846457863,2.6460825530363663
-4.850183117562036,8.74503994994398,6.780938802147666
-9.995428411512975,-0.3023423065321749,1.7905572640380185
