-9.658291046313044,2.5917974582727865,6.539113582273419
6.575625774661617,7.533999314547739,8.584441373386436
-1.8796501358819313,-9.821757244336629,6.172811159284427
8.900665476043093,4.55830605418006,5.266499941969927
9.145438974236571,-4.044866619372601,3.7629182675403516
-9.010072847032383,4.3380395677275425,7.095527489216086
7.578149875485853,-6.524694971006212,2.3988751209345116
-8.59874384905615,-5.105056730176366,4.260606455964454
9.92743526227714,-1.2025095065305833,6.288638850118671
-0.5980273146216476,9.982102149896404,7.820839009411373
-3.4264259833807955,-9.394658321642833,5.952058192110709
-9.808639087727283,1.9469461334891844,0.4700379541199107
-0.5258104222890617,-9.986166601845385,4.6465593017717435
7.788877662373129,6.271633340732292,6.056045132104205
-6.492429814685635,7.605810614351442,7.585395241464302
-7.887647830618753,-6.14695141514355,4.779967031219038
8.986967445382316,-4.385705887954464,6.559600876361539
-4.525529535556753,-8.91737531019097,7.335092171220284
-7.07535537470651,-7.066777647670238,3.2526907380714376
-7.020029706205983,7.121740161223627,8.194742674103457
-6.12620197119713,-7.903774377352911,3.3200294767978478
9.991997418172204,-0.39998449374944484,9.694234839505034
9.79733601103876,-2.0030494469191455,6.597609457895317
9.909922954371867,-1.3391889479881347,5.8629797380749835
-9.387714066668146,-3.445406304411867,4.318853316057631
-1.0692913075445307,9.942666448172226,9.806309172923696
-8.48276445428719,5.29553653684702,2.5591409910702945
-0.6329316842993544,-9.979949773571507,9.50009303174592
-4.387581601511496,-8.98605184105221,3.0331915244782026
8.728713738807034,4.879503711030594,8.015270446319656
-7.368263590205758,-6.760820339666493,1.5982705682515808
0.3691632908963665,-9.993183600067326,6.053818944279047
9.84536412950646,-1.7518005472734375,5.50336022065183
-0.06443274889791983,9.999792418888978,0.8626795827373623
0.8112073576197716,-9.967042822369308,1.9004269947685026
9.211193752487006,-3.892802288088151,6.751863989908733
6.3453767956767395,-7.728919285442641,5.719812613187196
6.081165685504439,-7.938477429925924,2.9068367915086615
4.9861064040241025,8.668260663348203,2.7065431415844032
-5.674316309802283,-8.234205147815532,6.167231857139854
9.406986905451474,3.3924323664097553,0.041615636243687026
-9.795411302558275,-2.01244066091738,5.590493657262087
8.05662764366647,-5.923744678099256,7.053478377797178
1.136733743041062,9.935181749592296,8.667827583114736
-8.49745013789857,-5.271939031696742,3.7291780027133603
-8.19994065422469,5.723720229640261,2.150987798003383
8.926129420686571,4.508238410416381,1.4239024787525079
9.318946390378809,-3.6272907483748504,4.332894219238932
7.806710088223952,-6.249422181163821,5.9352154803533335
9.924315302797005,-1.2279925776116047,5.003760188226842
1.871314130105501,-9.823348890600776,2.2045625119386236
9.997982319831525,-0.20087193018497151,8.356719587135174
-7.611037431119434,-6.486301659813463,1.9825826053922824
-7.409415529311944,6.715695162378279,1.049782389501418
9.832530153194925,1.8224573483383821,9.03674694690173
8.290228497439799,5.592147303159766,3.2418293085964733
5.8360665271554355,8.120364985061688,3.4882582991818403
-5.76511546271234,8.170890018938884,3.838013328679563
-8.315215706726669,5.554924639507373,8.875209814756653
-5.918754225939984,8.060294561175638,7.793356008851379
-8.983574921164772,4.392650866597453,0.07008285294330174
9.827803660530433,1.8477757466923872,4.983979155097632
5.827505095330486,-8.126511204932731,8.280545624291813
-9.640573975082777,-2.6569406148720454,3.492754825710006
-9.973565636696716,-0.7266281652278771,6.023971894666938
9.70286460029839,-2.419590574513866,4.937257764454909
-1.4770972479705324,9.890307564481395,0.573675782420634
8.34245261766901,-5.513935465885274,2.3703759883688735
0.8167529330966552,9.966589920643772,0.24868471185109708
-8.673928197918727,4.9762405104004355,4.170844874641993
1.742626683717881,9.846992040272726,8.530084729628983
5.1988861516878915,8.542340591535078,5.858055633639982
-7.428979610040887,6.694046754661693,4.024511739601443
3.6583351300732647,9.306803107193781,3.640265599577064
9.757607174551278,2.188401751768946,1.5777706161599325
3.6306105858459525,-9.317653501496142,1.600759788805367
2.8697634571759245,9.579376686395504,9.959770656759135
9.539229668462559,3.0005161776473877,6.025219895203685
-7.897479787757812,-6.134314387277263,9.472528281035567
9.535419327134315,3.0126032356939003,5.1508612110477205
-9.115961838213968,-4.110868492694287,7.922683326715953
-9.997409767029254,0.22759163013632355,8.189545830587823
9.964867290905442,-0.8375081340756307,6.9089596039988175
-7.834922499461966,6.214015563822209,6.716313502667422
9.503161636821515,3.112863457404425,9.20631671063034
9.985691909072656,-0.5347495648253173,1.4874801578987773
-2.37287493752933,9.714394707383738,9.739525079251276
5.17587135106623,-8.556305029462884,7.256449385423051
-6.895886661415915,-7.242012645177171,1.4805704639960182
9.999346646836218,-0.11430938896386622,2.5307704719612167
5.969092849194891,-8.02308734575976,9.156999051321336
5.821580399104006,8.130756524258247,2.8584922971403337
-8.829157601713348,4.695314264679988,6.228086244077806
-1.0287213560571153,9.94694588160567,2.576577323190997
9.181935418878611,-3.9613207347477513,0.016745709928346342
-5.89397878900706,-8.078428933569624,7.700582165693986
-7.078054720669322,7.0640739924784715,3.152252635801951
8.935596199133109,4.489445463087612,4.479942236145882
9.899044963811031,1.4173598006319568,1.7831487649838529
-3.7990304738704572,-9.250263102128697,6.0171548278120754
-9.98915918376693,0.46550918504882194,4.274138774965524
-9.274511105647926,3.739444310484287,0.1612476775047056
9.445275747524041,-3.284321246960195,9.234765388992802
1.7112172326632176,-9.852498951161397,3.5186745018074115
2.955957063866388,9.553131310548306,0.9039757175373475
0.015535301015715708,-9.999987932713836,4.6538713005945995
-9.209727047393592,3.8962710009067534,0.5201064566561364
-5.366113963910816,8.438294906337497,6.23594561918509
5.881003462453675,-8.0878797144003,5.287028446560883
7.640823055486297,6.451187722795629,6.356479281359585
-7.5026351026435005,-6.611389151803239,7.784745493294806
2.22375682983651,-9.749610533849825,3.2346909134763644
-3.548830451875093,-9.349107038848365,2.1028228240634705
8.739015636078056,4.86102928528344,0.19252320665236744
-4.116726011705166,-9.113318108381277,4.905519763561196
5.622485838609796,8.269682762635595,0.6031883971992347
-0.19556329127591668,9.998087567085284,3.816015560719541
-1.0916975336719061,9.940231209331836,1.8987814954982896
0.6468476723306783,9.979057474972294,4.5760231138038225
-6.824077351981156,-7.309717388119589,9.54643191100896
6.040906944693324,-7.969155744842484,7.557895573115825
-7.37626849667695,-6.752085830684558,2.5339087582510333
-8.148172023805229,-5.79717971693804,7.804286091464329
2.356688005529966,9.71833430401482,6.993885625802396
9.211285602289399,3.892584944873527,1.9361711955693461
-7.129613876911146,7.012032941034719,8.4073363398079
0.3991186310645908,-9.992032041498723,3.2741131140589754
5.403740053327183,8.414249427968459,4.207728121088577
-2.0002892385865585,-9.79789992610635,2.7115979128247805
1.4622139223809307,-9.892518913057248,9.958788059913621
-9.67635035882467,2.5235379397333513,8.551555177752013
9.999390161610883,0.11043729387964314,4.145214679545513
-8.631319500996524,5.049784517354887,2.748878583190674
-0.9449396951674881,9.955254339920039,3.9513225584128033
9.74127082010775,-2.2600094710680443,9.662276690334954
2.3145759859731934,-9.72844992818261,5.992779751190068
9.57525611871994,-2.8834823149997564,5.782065309885983
9.889955479263223,-1.4794528103969253,4.0948449708266725
-9.92938970120001,1.1862631081270214,9.779134481892024
-9.399608107074972,-3.412823967539264,6.858269843260286
4.737131573011034,8.80679195053352,7.5323050420704405
5.879571196112543,-8.088920975621143,7.110050402667354
9.622070133189133,2.723190472954408,2.12715286939818
9.695898217629592,-2.447357299898668,9.299396566425083
3.7366737195809243,-9.275627715329742,4.65699577420313
-8.288802442755172,5.594260814886621,4.993683889885055
3.44764278641096,9.386892948005132,8.728661269530093
2.6914134948796127,-9.63100687361295,9.395581142461191
4.754365462795045,-8.797500158919103,4.821011909091152
9.939249715675073,1.1005976056002391,8.611465936228033
-9.979822800568886,0.6349306019128202,5.785251564012215
-5.526725533840353,-8.333984933607516,9.344442358015051
4.082799732311723,-9.128567595512196,4.824454965487295
-9.305597691262996,3.661400225099789,1.829818632315653
-1.0479055819154077,9.9449431316318,3.182214875565823
2.361529539286799,9.717158959030971,6.293820283088864
0.4702284368205295,9.988938142625837,0.024792757763407725
8.582475296973698,5.132359864315463,0.03447286573308728
-7.273447366051905,-6.862722740521622,1.0700644164848538
-7.458529367776585,-6.661106489916987,1.1081566710426582
9.631851912818863,-2.6883877565424967,1.0201662969191871
-8.273088465755613,-5.617473385587282,7.199513094240563
6.037259655096278,-7.971919207878788,6.475534705400165
-9.999992727739318,0.012060064708207672,3.543780039347404
1.5933057617297377,9.87225287103399,7.519719499904314
-3.3094050554061107,9.436516209875998,7.234131465801296
-9.43431278270682,-3.315681275100893,3.07953055734844
6.27863606166232,7.783233852660054,0.07879196660312893
7.703552309543672,-6.376149450422593,4.16722521073909
8.70280054915417,-4.925572312091447,2.349889328175326
1.4979522989286278,-9.887170419798297,8.823248933445118
-7.357588851729126,-6.772435772224885,3.4653921449808656
-5.0641761825291365,-8.622883484792347,0.7238411838066972
5.230484503248865,-8.523029500199648,9.98555995565328
9.967699457680736,0.8030986996323485,4.668241225618703
-8.539686162978215,-5.203245164110413,1.751527914455706
6.448625031215226,-7.64298601377658,9.18323777547175
9.364756364028517,-3.5073263666769554,0.5154203170481653
-3.2659247522252057,9.451652528145685,2.21781103071901
-9.689643518961939,-2.472004950528801,0.776541951391605
7.64148816677384,6.450399878849015,9.371302871573663
-6.049034923242096,-7.962987912674331,9.71131539230698
3.921537943026865,9.198996693194353,5.383711445944204
9.637579319401656,-2.6677827614409546,3.6777431925007766
-6.5826367624477715,7.527874418032699,7.076582439547251
-9.428914454130798,3.3310016836806504,0.2445064005136821
-9.053463429252105,-4.246739918478021,4.024159273332467
2.709999468334967,-9.625793623469402,2.5722437817048025
-7.288667841880946,-6.846555417925905,6.817981192227512
-9.400131225606184,-3.4113828488434983,8.318572784966339
-9.334190728476809,3.5878800766493817,3.1635716839608663
-5.059855645354647,8.625419459259515,3.0732072831677284
4.31487187988327,9.021190645374512,5.591837449165279
-7.82404807989817,6.227701955251371,9.975181988215741
7.449960473944227,-6.670688790272614,2.9266341175556745
8.476523870669457,5.3055200565044425,1.942700447353568
-4.971375897838986,8.676717218071914,3.5441875424089853
9.956824611980954,0.9282476211929193,9.242330300428224
9.97867003654785,0.6527972899010215,1.3503586740738915
0.09217739702007113,-9.999575157349366,1.4790780748994792
-7.334156435036066,-6.797804747594554,2.4141568737894037
5.55847570880592,8.312842341498756,0.588822799115043
-9.51643120150727,3.072057484322013,4.767138769313277
-9.520448576823165,-3.059584758764784,7.609309081453123
-9.836988992385425,1.7982345685944217,6.711649261121111
-9.753792860537434,-2.205340072126964,6.642668175697074
-8.904881362267448,4.550064606567893,9.304263669342683
-0.7049091185759182,-9.975124216497182,1.4312803349043646
5.518915343897114,8.339159035951827,1.0785660466446012
9.53097549231806,-3.026632809713219,0.8778951493262399
-0.4428622161697435,-9.990188839931367,6.016301326526255
-6.620755894609999,7.494370646290917,1.3501372638642162
1.920339754690887,-9.813882780355273,7.431361628627476
-3.437783132984796,9.390508353149219,2.3089197552455696
-6.341925796284537,-7.731751237230848,9.268958417452414
-0.052617432976002874,-9.999861569329198,1.7056374614803904
-0.6342734832768394,-9.979864585675092,9.501120210952761
7.130022642333628,7.011617297015703,2.75513570699385
6.021375929525794,7.983923341022719,7.838805803348774
-2.432233400915212,-9.699703123470966,3.250306432603629
3.569747777347155,9.341140230513888,4.694136427017638
-0.7859036681239239,9.969069937784035,0.5682692453479476
-8.632888329916668,-5.047102048026036,2.4340104840670818
-4.743985451733347,8.803101841609147,6.522012348861603
0.9280602739363498,9.956842076077193,2.255105544849525
5.306485165118683,8.475919725456073,2.365982932059656
7.730164714681665,-6.343859510100341,3.482312786098806
-3.775134102050842,9.260041172237454,1.3643354148862519
7.438931147026099,6.682986113243463,1.52271585662334
1.7734939142379644,-9.841479529834977,5.315765614700847
8.039473933988862,5.947004192424421,0.2667295425249583
4.019697333867971,-9.156529546945979,6.922054460893864
6.856020553631198,-7.279765255019324,2.8017974106258947
-9.958536626777988,0.9096967918605152,4.608307058460694
-5.163875370513532,-8.56355014919652,2.7495141865605612
7.600101154679165,-6.499112434682479,8.399447288908743
-9.972549182615527,0.7404477026194312,7.239726928824778
-9.69749896287443,2.441006731873006,7.512242417504366
-5.255938825282344,-8.507356056078153,5.219215839909524
6.1643903756081695,-7.874026371375027,4.322168624195019
-1.9237186113572593,-9.813221015768354,0.3440095010846589
-6.383411929154651,7.697535459010637,3.417224709855887
6.303137812937725,-7.763404775684096,9.160064697069899
4.916610945306484,8.707866375438503,1.4347025327711727
-6.19398524654046,-7.850767272416061,7.853893461752552
-6.713958231103135,-7.410989466393976,0.6760692663602352
-5.691314159496287,-8.222465757783189,0.7031818610900253
-7.956832592389827,-6.057129278518247,1.8346103379976164
-0.0518932462815986,-9.999865353643036,9.788216618569853
-8.081522579051578,5.889736225356747,5.028082205751032
-8.311529618769477,5.560438417635584,8.536384825547877
-9.992109430251265,0.3971764518242902,9.946496077066687
8.987353491678059,4.384914732993359,7.4290412373313615
0.06982074695005357,9.999756250194068,0.19978973549376833
2.0351467854112726,-9.790718950201265,7.3703311553480875
9.919807049790862,-1.263894020446139,1.2896438491369522
9.824649517288776,-1.864473615377113,7.697861760627487
9.46565442823388,3.2251180203608576,0.6208970658833501
-9.790160119817713,2.0378333661835137,5.056408519792321
-8.956912880617171,-4.446764177357983,5.353081621398408
5.762681797154789,8.172606591824964,7.215350351480007
9.877366405125954,-1.5612920607270055,2.12065220070338
9.410042274143906,-3.383948049072944,1.0110156339257659
-7.679106115736874,6.405570174719228,8.988573659400448
1.3236085122073655,9.912015965806965,1.214631765551516
2.2540256661672777,-9.742657147629654,9.673194610336157
-1.2368837104247281,-9.92321110764484,2.75403459802386
-5.302196345155322,8.478603299920428,2.791696962813143
-2.635940706282682,9.646336952074709,9.645602664848292
9.02485228230571,-4.307208061211044,9.107103638385535
-9.66351282418572,2.5722596868897476,4.60529901867025
5.169417395819197,8.560205826252187,2.295547847558521
-6.982939871739956,7.158110836503187,0.7052096754144388
3.1219285364361955,9.500187483065023,7.879089508313328
7.845017592436977,6.201265917081313,3.8926050783725588
4.109794387185922,9.116446132954172,1.9505379686599622
6.29163281166452,-7.772731602415357,2.0928470755997433
-7.856130233854844,6.187181729084077,4.135167987656065
8.96132278676903,4.437870425252878,5.8397708561318185
4.895767169040925,-8.719602274561668,6.459111575691664
2.6236212022133767,9.649694906435977,5.892330885088256
-5.317730491017073,8.468869016870395,8.287665006854276
-2.301903292609327,9.731456274960822,5.829178635818375
3.724074557536064,9.280693330237378,6.172415650228249
-3.2564204933692285,-9.4549312832175,0.8192924804830226
-2.793337908408495,9.601940602266193,2.8601087318683573
9.57524465585456,-2.883520379766495,4.271571862307021
-9.985849937883813,-0.5317903892191209,3.739785852226225
9.344087137290854,-3.562026890790637,3.725790968708501
-1.6945110729579107,9.855385950008403,6.410248834870281
-9.36984554480777,3.4937078393085437,7.37853634004251
6.873735816381141,7.263040405133313,9.55655551651352
-5.438427718424127,8.3918713021278,2.7806001319945595
5.345473739803072,8.45138512298876,9.024583554697514
9.336139781979993,-3.582805321438855,2.9100479251624325
9.999297969388111,0.11849100974669664,8.912135594804571
6.866198806538877,7.270166019361875,6.85014971910578
-2.650593126030451,-9.64232109402296,5.316611619821787
-2.6847658150173044,-9.632862114580197,4.568279843913352
2.5840847894632613,9.660357436496055,0.7925900476842462
9.984664994645765,0.5535927606964026,6.543361937180624
-6.542323620047367,-7.562936046970801,6.976678231543061
1.8205344526589462,-9.832886367017661,9.59284621703347
-3.1559889166434756,-9.48892691288238,8.373103927367907
5.760021100131395,-8.174482058579681,5.9871593729096855
-8.479431634733977,-5.300871546441459,6.0186329529519895
-8.995870088037535,4.367415867438269,1.958253657455784
-8.782113969101315,-4.782726652623538,7.718865160963975
3.4521873797732425,9.38522254903603,1.840557671008518
8.549581370710024,5.186970058291074,9.188310188154317
2.65697019578967,9.640565822537877,9.893047577479164
-0.48041161793248083,-9.98845356786302,8.391569192814908
8.901127322594027,-4.557404128116147,8.013338465477936
9.886163592970608,-1.5045828036444084,0.30276869883549384
-2.065705635218547,9.784317054788563,8.515234232711403
-5.343219379037313,-8.452810577995942,7.19797849678932
7.691607508179573,-6.390553492469616,1.9414459333905243
-0.26873391575762506,-9.996388451962117,9.659254592651838
-8.98831027538797,4.3829531589277835,1.4090231663707997
-2.267728758174977,-9.73947669432738,9.649584724709884
8.543614563585072,-5.1967922980331895,9.619201044257014
9.470471026261372,3.210946673606381,3.597379511269534
1.5600853742769178,9.877557067664416,0.9415221987907862
-9.904018568198804,1.3821780640616903,0.5344784763520682
3.528439362076078,9.356821878616273,4.836501018253631
7.380750327949583,6.747186420758813,5.83896850101868
9.980746577559149,0.6202400781482291,5.69739406181392
6.419633226931342,7.667353469853798,2.243773852706914
7.362420721319197,6.767182657671487,5.188916453589191
6.059760453986637,7.954828925897757,0.19998180074511152
-9.654737948096052,-2.6050019488656897,7.879675487440245
-9.996756959751762,-0.2546571963536768,7.424712496371489
4.1350910192636094,-9.104999849665315,9.344579861278179
7.973206909766145,-6.035558928057732,2.585224541968245
-9.044472923408252,-4.26585390487473,3.3137989750526256
2.735521958960991,-9.618571599361426,2.0096157546943005
6.719055047112449,7.406368831881972,8.92314728896604
9.989462514314669,-0.4589538921308597,5.249872938975293
5.382787258687936,-8.42766879556303,1.8272656636325124
-9.80709645116393,1.9547018180704312,7.389707556140004
-8.785069512219954,-4.777295643506216,4.433683191020306
3.0232195508424793,9.532058725553668,4.226981019821611
8.084505050010025,-5.885641689430507,2.7783508021020586
8.518822600455756,-5.237333434293088,9.064703833877182
-7.822073594356258,6.2301817537271384,6.247789243032199
7.541197927022029,6.567368866256763,1.2748556417081591
-9.83237259887388,-1.8233071811721961,4.820681894812231
-1.1287568767347056,9.936091178789782,5.129936072965839
9.97852775753398,0.6549685428506252,4.791867574529574
8.50038067096399,5.26721258814392,2.2373915561085456
-3.230196311995561,-9.463922642645082,5.807650574751609
8.015377280366694,5.97944203528903,1.382992496043327
3.7495087053696796,-9.270446832184358,2.7812502123652694
-9.807751253445893,1.9514136800100865,8.888493558600079
7.8920332322201965,6.14132000969922,9.4234282786696
-9.910297374595272,-1.3364153348005459,7.174841715971951
-7.222068585117208,6.91677130978487,8.315348782713668
6.703475641277038,-7.420472648477682,2.3395480666326196
-9.445689491287313,-3.2831311326513357,0.5107418815921294
4.814659113973318,8.764648174127338,2.6561468920476425
5.16595858071604,8.562293614582853,0.19197439591512655
-8.43507114270436,-5.371180020955931,0.7935337646971663
-9.523541329843932,3.0499443501077956,8.240048884767893
-0.03944059547624202,9.999922221668951,4.555359094941986
-9.999845669143118,0.05555711763240306,9.29596952838634
3.9093444109713693,9.204185258696553,5.488911929229928
9.97948129129329,-0.6402758442477857,2.8589383906953305
-6.306400525265188,-7.760754629218409,0.8903848223284516
-9.902707262544494,1.391541904632597,9.157520868911941
-1.366107880556129,-9.906247990974304,8.129648509591705
9.77354649352389,2.1160786703066834,8.408526978345602
-9.128593043705859,-4.08274283324397,3.165999593164196
-7.575497406937664,-6.527774432184428,2.9513406650900675
-0.9048344901535934,9.9589795935843,8.040984065862428
4.863780251891676,8.737484859003107,1.7365964703593895
9.16346409971719,4.003863845486536,7.054348660484408
5.081930486298471,-8.612431859378058,8.178463360243228
2.8392975422395517,9.588450837681364,2.7725617824084594
-7.764381701695898,-6.301934368935455,3.920735396030428
2.1153143552342235,9.773711944729087,6.252737155301591
-7.519969042398873,-6.591666375156025,1.6549893739414512
8.865999158046487,4.625371220725854,4.933005633576574
-8.564384876382459,-5.162490841560052,9.850820270159712
8.90040700177481,4.558810722409734,0.13530159727053293
-9.867055291300119,-1.625183029208198,8.710712032612731
1.6072006825124276,-9.870000302235638,7.936017071655219
9.999233746683247,-0.12379208048540163,3.6217908681151947
-3.772732744209894,-9.261019794858798,5.125059368432238
-3.5800547079202394,9.337194883277212,3.753589004991331
9.264879151628296,-3.7632451827808566,1.597181996279008
1.0922100631866045,9.940174906804906,1.887809934328557
9.96920670658554,0.7841668453651158,7.810456910550943
-4.674782911917642,-8.840045516084338,6.240687039657258
9.997732173424126,-0.21295865439116962,0.24181697819765535
2.795480445036511,9.601317049312478,4.781285429823779
-9.901403257340553,-1.4007903253256373,3.2231486603151263
5.202523771664921,-8.540125666830752,4.890649289028075
4.529395028136699,8.915412535552719,1.0844467639349231
-8.459423630862984,5.332743368435887,4.408013770551379
9.838549960677003,-1.789674459577089,4.106619870344299
9.955514539149332,-0.9421943858813009,7.410626424821021
-5.170458706898976,-8.559576903109905,2.392286241651459
-8.588546289131191,-5.122194123561784,3.92409930873281
9.964404120093642,0.8430009083392774,3.9841270020730004
-4.725868960517189,-8.812840777412251,1.800141779069081
1.2550039258012688,9.920935699127547,4.016484026250497
3.2043007416306137,-9.4727217185551,2.9695932401749636
-9.52389259411594,3.0488472995123184,3.7049945018455164
3.7083231161178194,-9.286998420720563,5.06379373214838
2.873498393922407,9.578256990712108,4.201562624379163
-4.48856978654782,-8.936036105079816,5.047368428953261
9.290410612614203,3.699766296541633,4.399309252418439
-4.34781043163712,-9.005361983315687,8.662509064235662
-6.745090264038486,-7.382666004227282,1.695958812422278
5.7151234705102265,-8.205934664425689,2.7278440566650684
7.800316562946793,6.257400539986068,2.9735954962263342
-3.205824212576843,-9.472206243429039,0.5508842609602627
-5.377241429291454,8.431208371942398,6.424666337611528
2.414106723164122,-9.70423045527948,7.698241627287907
5.781430591754788,8.1593541602704,5.319189714314131
1.080515784298616,9.941452893811928,8.372757097002166
3.3707455964991495,-9.414779557890965,0.891624849454884
-8.803083091751198,-4.7440202444471264,5.005599133333861
9.047119426958929,4.260238264973258,3.1532690325404267
5.042603775080716,-8.635516612660862,5.777935579904588
9.69888446406307,-2.4354958740995607,0.6990502790722808
-0.3416694374065754,9.994161395311878,8.535028093924513
2.727222842828695,9.620927999187677,2.3274845161978286
9.762068448424733,2.1684140767552478,0.4607126977002707
-9.975079287148892,-0.7055446230346802,2.3555222431962033
5.054006573057018,-8.62884798565234,1.9385851581256464
-1.0400931492997028,9.945763230681687,6.340189025318871
5.2554792231192735,8.507639986233645,3.717465521014185
-5.031774272549013,-8.641831268320034,9.954876168272511
8.628146780287945,5.055203570362599,7.101963387992164
-2.16638128972038,-9.762519762210445,7.650541302999589
-2.5388667715160977,9.672339712628554,9.742296654125074
-3.4105581321681386,-9.400430480946167,4.51057939567793
-9.774251522324274,2.1128197221584273,9.438829545150101
5.403386432788437,-8.414476517167175,6.0966207803886805
7.5570175821902,-6.549159126366391,5.617650408133815
-3.8960544493445273,-9.209818658787084,2.541771501917477
1.570535928903472,-9.875900814407935,6.412312716391479
-3.821768048421882,9.24089221796584,5.269517383228347
-8.930590784980003,4.499394207138364,6.359223302291799
5.375332416873617,8.4324255945788,8.54003299371959
2.1403329265657733,9.768263661647262,4.729157131883527
8.586153728171444,-5.126203678767319,8.24087423175887
-1.1351931836724987,-9.935357891678764,5.725551132298586
7.767411022681014,6.298200219486,2.578639384917735
3.326137431731922,-9.430631462698125,3.8008213122038335
-3.514916901465765,-9.361910017501252,2.258765827492658
-5.924142012333128,-8.056335483190209,9.803781795950426
8.170086846794213,-5.766253629163409,5.481423044465458
9.926636900886383,1.2090822296108763,5.829780636235866
-7.261900477183584,-6.874940105883166,3.1341668447604976
5.5992982291950195,8.285400372977369,9.496403119766372
0.10811019901805169,-9.999415592166788,8.099053999274815
-7.975095907428557,6.033062677224254,5.380806763937685
9.948428242606125,-1.0142857101018474,6.4426531153665625
4.4853175388652975,8.937668967664184,3.1403405128141735
-4.638167941555537,8.85931138102316,0.4108630201087915
-6.559622377174263,-7.547937086971159,8.995044076133706
-9.399412459812362,-3.413362771567666,2.2057358720130593
5.474070857183097,8.3686646635254,6.260234708921528
-2.9061975208414577,9.568386278252722,8.140621578135717
-0.20329148301692773,9.997933415107983,3.7344216170607902
6.491284631773434,7.60678801001461,1.1818657607065908
-8.111434271641953,5.848472796964382,8.972060138272958
8.65508113984981,5.008949037733974,3.4901849015070017
2.3940101619673935,9.709207760903917,5.642596832065898
7.395213218942402,6.731331327930571,4.912259494968433
5.372935525446456,8.433953037537938,0.9909896466796497
7.514003828725345,-6.598465462658788,7.548730622307441
-7.749067985580429,6.320755125366943,2.784280952913847
-8.871558993154496,-4.6146983683638085,7.495104312625694
-9.999445223951135,0.10533381793534137,9.360847415900757
9.27031372837379,3.749837780161223,6.978538814587742
5.582910790755523,8.296451476532937,2.553834548090311
9.09862808676015,4.149092303000662,2.7292105899504415
-9.704932141591065,-2.4112843314533974,0.47754525341402343
5.230647712336475,8.522929338521422,6.044733607351431
1.9953263922758708,9.79891180633275,7.912312467781541
-8.866616024187376,-4.624188607704452,6.054723289329899
-4.060256068746612,-9.138616999098184,3.4949495071635353
0.8339919530131924,-9.96516218745632,6.954773829812691
-4.55888664595519,8.900368113136189,5.191714855691839
0.11840213053568437,-9.999299022205738,5.8883588820303645
9.138983443718821,4.059431193582825,9.659550528598785
8.088899683346328,-5.879600489213503,8.3649202267686
6.356700340793754,-7.719608848727542,2.8015510503457755
-9.449358786178662,3.272555351719528,6.78143525626869
-7.420218261644918,6.703757226328476,9.677139343808177
-9.831894438767065,-1.82588382569682,5.7893809616274385
9.736986039038683,2.2783991914424853,5.0657113358863
-6.907904621424201,-7.2305500303439,2.1708122570054753
4.379671245568291,-8.989909887242602,4.901196877864768
-5.522198747675139,8.336985126001792,9.204446245003904
-6.321999628941118,-7.748052703206682,9.263577513889876
-9.92233663497064,-1.243879295719463,8.838405875025343
2.537479249562558,-9.672703813207526,9.543550241484228
-3.6621230743159345,-9.305313245053217,8.449372399178571
-4.122895325719545,-9.1105287515687,6.634376643625588
-2.7413539054929172,9.616911082298657,7.4310348161374264
-4.213122138043076,-9.069156622858122,1.986956876703867
9.688986619052574,2.474578407692948,3.261332805535304
3.700485931147504,-9.290123996663306,9.758969244107636
-8.662289779934328,-4.996472332400661,3.2790933213056173
0.2564511297923696,-9.99671110005827,3.7625312298468696
-7.589361011536273,-6.511651053041242,7.4373503055698205
2.8899721398272584,9.573299380622245,3.0297312153215685
1.2960215275259297,9.915660754593683,5.421623892031212
-7.356641359964523,-6.773464984840427,5.847286033620014
-6.214204766652225,7.834772435630582,1.0872887984531532
2.4735809599679754,9.689241313667644,6.011183894853225
-9.998444184809255,0.17639127884904826,3.6747127182050763
2.255898150219065,-9.742223746960352,9.78777397023515
-7.507567056553807,6.605788135517821,4.425704347810391
5.194497223875446,8.54501015746326,2.628989002090032
-7.778010146991957,-6.285106057441685,9.720380656301572
9.267859056470328,3.7559004924785877,7.6082863036529815
7.504492166977052,-6.609281149700025,8.40579847591262
9.654039578658404,2.6075888889349623,7.17595878541066
-2.2461429020023043,-9.744477516202943,5.871357297040227
-9.652739454892338,2.6123975608556953,2.4832678536037434
-5.497278247044122,8.353438326496192,1.5239534093633311
-0.16253479278432326,-9.998679034809276,0.23079682335531926
-9.98979714471717,-0.4516115669474144,5.830615478809476
-9.725283781264693,-2.327843502873403,9.260267413125883
9.974727247216315,0.7105042882632187,1.039433180329724
-7.455780258347766,6.6641834262895046,4.62576005310704
7.419620349578216,-6.704418980651853,4.945924571251857
-9.23918957848051,-3.8258823731130502,1.3427805715466967
1.2167742359210219,9.925696975970947,8.85409622841572
-9.862099595481663,-1.6549898999088857,2.6229312268302865
4.669195313834758,8.842998084431747,6.0283620847482355
3.6910810892294883,-9.293864663999173,0.8574207541508228
2.710348455487712,-9.625695364483304,1.1747770324396178
-5.753206588063574,-8.179279549878576,8.997204505235478
-1.6444618389458792,-9.863860565734429,8.412767040119412
-8.144248797631683,-5.802690024658811,7.051352488752141
-1.0222931568151383,-9.947608592095335,8.806225502391436
-6.6891589737032415,7.433380941706499,9.209171661010497
-8.654453836382078,-5.010032813658163,2.4038497549835833
-1.3324419987207632,-9.910832372714465,2.601386301899713
-2.633858584270625,-9.646905667521786,5.104386249197067
-6.13086502803288,-7.900157847033399,8.399805418086341
9.933800308882443,-1.1487434105347794,6.608532866734164
-3.402783709790196,9.403247472250557,8.32395437217101
3.6905578662058796,-9.294072446252283,5.766552260906305
2.615183628819273,-9.651985007632144,2.723148452437739
-9.928893669650531,-1.1904077019129338,0.9100245768740844
9.209022474898005,-3.8979359995802194,1.973169061143003
-9.254365576172987,-3.789025967520468,9.41742745324453
-8.957497870257859,4.445585664940662,5.20036550289978
7.117203206384866,-7.024629422184846,2.832283266202559
9.23610649833557,-3.833319286389207,4.924312802023834
-8.14319884792884,-5.80416337839403,3.7173880247193702
9.235988051026396,3.833604664189778,2.3568304015664934
-9.335814463468239,-3.583652927349028,7.077348275769522
-7.67661154189892,6.40855952884767,3.1113762325408567
4.9232510206936695,8.704113934642557,9.96258486175691
9.029619011133796,4.297206128843612,9.637154283532158
2.8946407690392832,-9.571888780079702,7.727912159592604
7.44236381510467,-6.679163184383254,2.6594473579151643
-8.645628655001392,5.025246776011983,3.17761637440631
-9.950972807882,0.9890096949944525,0.8749679173119618
2.5326752127386376,9.673962800568303,1.2319667632822418
3.854562004711084,9.227261335403787,1.665456299199658
7.84427213418419,6.202208855308035,0.29461451570696573
5.327543224877363,-8.462699521255809,2.5769235385191056
-0.010528587899557658,-9.999994457440307,9.722505734776238
1.3696171543932947,-9.905763415829776,3.180305680588437
-8.961977444347518,-4.436548240130645,3.6908403436999992
-5.341979348004196,-8.45359430334202,0.5613186005459869
-8.761109280712427,4.821095743854771,7.5486465842571455
9.29566377038363,3.6865478523921498,5.288231481586617
-9.996767127784977,0.2542577291602167,6.768707171531178
3.4300063176043234,9.393351726683848,2.7609664461748116
-6.734734468810204,7.3921141518932,8.44391143542985
7.226049786139618,-6.912611987391712,4.765138089736219
-9.420935658652226,-3.3535013516524708,7.294504735971227
8.64585504833026,-5.024857259988801,1.7009188586389001
-9.42641407814308,3.3380709440312883,9.835657518866668
9.26111088417937,-3.7725091372897164,1.7238871061770822
-7.653825635931202,6.435755832438201,0.3410161079869156
6.3630266240035755,7.714395127436865,5.778027267426269
-9.57174747727429,2.8951079826654587,4.360815468030089
-8.449286110454,5.348790912317391,0.2307761125857355
6.958143572037187,-7.182216790860435,4.9355454483267645
-9.95889075415951,0.9058117611933691,4.618661279974204
-9.984332632828291,-0.5595550706052694,4.365896815200606
4.2549363970033385,-9.04961414964507,8.858171117235221
-6.580426398014227,-7.529806665533817,4.586454836709295
-2.2746436861867285,9.737864042021272,7.616456488663309
-2.916345390913668,9.565298195085013,9.69003859517074
-9.815540460879385,-1.9118487023924553,1.1812251661044704
2.827179381823519,-9.592030897729218,8.672857122156564
7.4071923544712135,-6.718147171941322,7.000175502990555
2.492577989126319,-9.684371686801525,4.480174624793536
-9.689685102739453,-2.471841946757338,6.552201190505167
-7.332658064311803,-6.799420983575224,7.162334227174454
7.701460996673031,-6.3786752948182,6.583126698672556
8.69142673619508,4.945614349032216,9.050436681020692
-5.808908263429454,-8.139814788252925,5.595100145414422
9.504587596586772,3.1085068149851125,5.999499357840867
9.411440146706694,3.3800583375080184,4.598161671852173
-8.886979185176562,-4.584931947394479,8.362365572139204
-6.441772293992941,7.64876262622556,7.99279049937495
5.549379458026319,-8.318917455464714,8.837722094776856
-7.017699096211211,-7.124036734537263,1.023527806686697
-0.8130421430041396,-9.966893321075492,5.2885092969877
-0.09854979077488148,-9.999514385145822,9.627362326595009
7.252118651702645,-6.885257806475122,1.2466475702098612
6.129350897789502,7.901332645305287,8.07578024213157
9.94148493113729,-1.0802209792307143,7.640125509518013
-5.810748376233946,8.138501293733052,4.213833600766661
-7.230559522551873,6.9078946858528765,1.0276674624042559
9.036528999398453,-4.28265614345009,3.0306196474966054
9.662504002604773,2.576046660999512,6.624702134491144
-6.056036142811543,-7.957664622045861,3.020190113158392
-9.998906868324076,-0.14785614150795817,8.543490237096076
7.003534408480396,-7.137962299510354,8.979637770665123
9.157248067682461,-4.018060206981204,6.715777301831535
6.947089350056458,-7.192909672888444,6.327454046513771
-2.0825404499181848,-9.780747684837523,8.889259529175469
6.875147526239905,-7.2617041038889285,7.146106636000829
8.36464028864604,-5.480218320610913,8.111744610815904
-8.205357212158983,5.715952503377766,4.516038830589986
-0.29816858183195116,9.995553786399647,1.4515953579362928
-4.3855663152243345,8.987035556554211,1.1514042811096026
-9.713483886337347,-2.3766006795136483,4.0877130341978685
-5.80159336195814,-8.145030046751408,5.643726665943642
-9.518406066901212,-3.0659331280343043,7.999638214914437
9.97765582997861,0.6681198533899911,1.225403198502395
-5.558027751606655,-8.313141855662652,1.3371744453449164
-3.9305362913263524,-9.195155488765074,0.7226399362328251
9.324559910102144,3.6128357951775087,2.738183205281305
-1.0520538904971737,9.944505146636999,9.768160671588445
7.828615286976542,6.221959714472378,8.104671343918845
7.245334346203166,6.892396550672975,9.706925395970353
8.448892617734625,5.349412447548736,1.153762525630494
-8.628810644391567,-5.054070326304809,7.874208793564344
-8.113478217424646,5.8456369383819755,3.960543019908569
9.96833162191797,-0.7952136036752939,3.350733040283954
-9.857391552404405,1.682804736915812,0.4295087674850506
6.875742353290048,-7.261140894595934,2.66571303774929
4.0592735064076795,9.139053484917172,5.9230277406546445
3.0206236257088066,9.532881668824478,5.979363948785328
4.016738189880104,-9.157828034744849,6.949138172184726
-3.088780978305622,9.51101635305383,9.740540168028877
-1.3040983971173872,-9.91460172526541,2.86388124613692
-5.544248499419542,-8.322337927330526,4.985343716736211
9.976430651707958,-0.6861715905383503,7.787433752222034
-8.880899089605682,4.596697875675642,7.2490793703764
-2.4280559000227684,-9.7007496899139,4.195361966054279
5.246182765172778,-8.51337573436085,2.1670674844273465
1.9887208335448787,9.800254560276716,6.622449204648756
-5.435631265671992,8.393682907022942,5.139701044659153
2.03219096417676,-9.791332896246471,4.176383645730794
9.503895546954267,-3.1106220330639434,5.231367270870331
-6.291713474739408,-7.772666309046244,0.693472443654114
-2.1467239003899086,9.766861138333786,4.056185188144702
9.984076418809813,-0.5641082018246037,7.556181482615392
-0.3917468155586409,9.992323775403781,4.699383897231659
9.730156113811613,-2.3073929012750463,5.066067218816169
9.1074382875111,4.129717646422924,1.2189452720656757
9.98893415694387,0.47031309596912935,3.8224595612166103
5.917863677755633,-8.060948423820895,3.095006102102331
8.939731497471987,-4.481205279063575,2.452120553908721
-2.5901244573297655,9.65873983993472,7.394274157473687
-9.390086368340317,3.4389355904275627,7.924620900971982
-5.680682081265446,-8.229814766541812,2.445560462244687
-9.905131083945264,1.3741827425278377,4.155569539037646
5.37008700805436,8.435767038386361,9.621980220784526
-9.894485135097153,1.448849167905857,5.324852200762335
2.508053932208145,-9.680375275428904,4.358425482956864
9.90048786220624,1.4072455685867025,4.255070102796968
2.4059993460721225,-9.706243719724975,3.7280615751486232
-1.222103579164329,-9.925042208564845,1.8646045554947654
-5.913795879189648,8.063933178001882,7.738403511666737
-8.46453211090219,5.324631080507428,5.112643331644184
-4.014429039647936,-9.158840509891595,3.978796084413517
6.7618873944782845,7.367284361580982,0.7707281890331164
4.262165352436556,-9.04621172140523,6.804038874521087
9.39138543424261,-3.435386386637718,4.300432353012189
6.121545650996416,-7.907381288566201,7.331822844047605
8.85349278592867,4.6492650483177425,7.9337870120259435
9.859993709924865,1.6674903418737077,6.742973015579534
8.978761444983144,-4.402481449601372,3.490899452266123
9.998483476057618,0.17414987511553306,4.9717086233151395
4.337591710414245,9.010288461184006,1.028646897809864
2.8027897334566205,9.599185887877688,5.91738584250956
-4.065371261899141,9.13634262180029,1.6825666110638937
2.8412174541066504,9.587882111210991,4.3313867193069235
7.01019696216509,-7.131419112045747,9.787485945138929
2.7045944345534423,-9.627313693060103,1.9532216891788468
-8.37550996234987,5.463591572452873,9.587060263923185
-7.6372536185085105,6.455413012858174,2.120830751169728
-0.894479437103294,-9.95991498641426,9.95124365686091
3.3850148851596105,9.4096585606093,4.81557275436848
-8.546440467529038,-5.192143616559739,1.5694547903922573
6.566505774777898,-7.541949476747276,0.8599028223141614
9.995949878387243,-0.2845804434075737,6.492994320818037
8.197964800143062,5.726549845728694,3.1303335146778033
5.979613607797605,-8.015249285046705,9.427966841704894
8.659282446842203,-5.0016824675113565,0.09005623021887232
-6.831146010713244,7.303111951785795,5.183699128854851
-8.909002695553662,-4.541989758973218,5.621757620371358
9.985097658966211,-0.5457332140409801,7.821201782271623
-6.1358202338270615,-7.8963099013500235,9.934209662717498
-4.920989673422671,8.705392618030931,4.665620038065407
-3.0886471604671364,9.511059810459521,2.0317587300010045
4.826226025896195,8.758284212502026,5.678250583204937
-5.602325603713936,-8.2833536583905,7.5031235130896174
-6.402309791273899,-7.681824609853987,3.349706419345322
5.152625119025833,-8.5703240535457,7.258833305156167
-7.178365639993514,6.962116541581339,6.966237583399865
-0.6925248073648521,-9.975991649514562,6.984165814159427
-0.620749929059128,9.980714880486923,7.315709835499425
-0.1735384847178209,-9.998494106330305,2.2593360111020724
-2.12294436770835,-9.772057470748695,6.322514473870552
-5.858413879096491,8.10425732693685,2.8915617652755254
-9.254172852775342,3.7894966434812796,3.629039736507541
9.97695263324577,0.6785397217336082,4.860703647126901
8.571581823139676,5.1505325015207415,9.390969648560585
9.805775352686725,1.9613183659573292,1.829900880651616
2.764192899382368,-9.6103713567689,4.34814234360265
8.08446958746774,5.885690400395623,8.424282462010309
9.992028104626792,-0.39921717942533913,2.778452285890549
-7.311076010132995,-6.822621752234093,1.638190397768181
-5.8204238067713145,8.13158451407656,6.487635926004652
9.598248736557359,-2.80599736122026,7.8047075766622696
-3.7334147161105884,-9.276939934996285,9.841331201913647
-8.294640380938343,-5.585601216602112,9.584819587943777
-8.79335602958146,-4.762025801801517,8.016925795443164
9.09218872442654,-4.163184382105945,2.7910438603128007
-7.317319962079042,6.8159246307863155,7.4747071172919055
-7.743635406043977,6.327409477682168,1.4775624047474634
9.841749108141338,-1.7719973172663628,4.1286490373208515
5.152522016364235,8.570386039781512,8.449536281010282
1.9803998321711855,9.801939425681855,5.1172169731466
-6.669178608459635,7.45131241382781,0.8097921305733602
-9.973729312895399,-0.7243780733091478,9.468674466371759
9.966903861862372,-0.812912915626841,3.335650635089543
5.016548304396048,8.65067876583457,3.460213135504344
-7.482187243043245,-6.634521388920298,8.092443987399056
-2.1574122172400267,9.764505749135665,5.5289986180517054
-5.3843378713367755,8.426678211922452,8.706771460300844
9.264965715166607,3.763032061620966,3.092268091180741
-0.09121562878145101,-9.999583976799535,2.40387791583745
1.3767611174179062,-9.904773032511457,9.87698529664689
-6.128494579936808,-7.901996847866062,1.9625912001119117
-9.82679241494118,1.8531461986725493,6.905591802693285
-0.48638501834774617,9.988164476715774,3.7832219916179888
-8.826130710141943,4.701001668526536,5.244718878815813
9.789553660387805,-2.0407447489550807,7.781629354536211
5.768097801018094,-8.168784962152586,4.51947135912352
-7.3734220161898545,-6.755194132751977,4.350483890970892
-8.255393677593394,5.643445333123287,2.9526973208992136
-7.074099753624747,-7.068034569508436,3.1076656709561767
9.37155599973252,-3.489117100912122,9.785445832525033
-1.8704616138132608,-9.82351125368374,9.205508923949568
9.846108257660497,-1.7476132805714686,7.375176625733541
8.549157395306663,-5.187668824267158,8.588979501834933
9.330273045395536,-3.5980557108479436,5.33675670222277
8.884642394175875,-4.58945852226739,3.903031778178143
9.995994648432532,-0.2830035132435479,0.47527607135480654
9.019874987943668,4.317621475056401,3.896969224121295
-9.870022851664165,1.607062197809149,1.768509089505933
-9.92678271469088,-1.2078844875708843,1.9009311904903081
9.594334697902832,2.819351291453012,9.42390426266276
4.697664038540693,8.827907599255983,2.9279670463525154
6.591430840270456,-7.520175495155117,9.919758882587733
1.9000192785230166,-9.817837172271746,7.919122654845342
-9.004608514194,4.34937070230912,7.755925882037159
9.970029056506306,0.7736411393016652,8.29128883790071
-6.928282812783698,7.211026089682799,9.893640805366942
-4.877139735594351,8.730034822352465,1.1596189974860804
9.995154349625363,0.3112708260746093,4.091316256147843
-2.954162222805094,-9.5536864906355,2.6991673792125424
8.397537396837585,5.429674545376937,4.499483843660318
-7.478541088154503,-6.638631123415795,2.055621956581395
-5.44292002897209,-8.388958311865334,9.661165420153067
-2.8051618255665045,9.598492961521846,6.426128879326853
-9.344961289594073,-3.5597329248116756,0.10657679107769269
9.341676461888067,-3.568344277309361,0.5070192913407412
0.5508133133924435,-9.984818711112869,2.8279081554570515
-9.79475510740304,2.015632006592989,9.207975219483417
2.465011624111486,9.691424956785006,1.8831911613476515
-2.4367911826504782,-9.698559105978417,4.7665090346585615
9.45003673259746,-3.270597155346209,6.190648324887841
-1.8027782799841399,9.836157302179414,0.6517948339622781
-1.07782625074981,9.941744845508488,1.5357851779433496
-8.184763596382933,-5.7454020635047565,2.2660328392111486
9.148440170013677,-4.0380741023017555,6.2679498917282945
-8.514518488456774,-5.244327879693237,1.5837260678068954
-2.7813503759125187,9.60541982874311,8.11395737889407
9.629639500044801,2.69630174483067,9.267365513221522
9.32829621713099,-3.60317772049335,2.2865108303586776
2.3359955014631018,9.72332890614856,7.759437774074117
-4.048222360853956,9.143954052655888,3.905501025544625
8.175224187080163,-5.758967745262992,3.5665064280269276
8.47000257781595,5.3159247861299885,1.355661491345096
7.95332139080942,6.061738929918815,9.04486339569528
6.125227792229233,7.904529365705627,9.749808400604307
-9.714920641822957,2.3707207602503955,6.138739609283351
-1.7124863541420527,9.852278441400104,3.1863079924288784
-8.77278459472209,-4.799817752228388,5.71373759069999
-9.999683275986644,0.07958881801492504,4.1402502892505835
9.962776764192128,0.8620203865764671,0.30556052180205184
9.853005077140145,-1.708300602894739,4.359549227328035
7.637526700512385,-6.45508992183381,5.708878894292119
-8.169182570697838,5.767534666268306,3.767042205389741
5.782940898950233,8.158283799871679,2.3306133248564675
-4.277814957949062,-9.038821780826705,5.554573104008568
-1.9564842851160578,-9.806741010248711,7.0146162754032755
8.161634860858058,5.7782104840535595,9.1857968425273
-9.595807408712963,2.8143347659596953,3.239211555153645
-9.844966829675135,-1.7540319616803735,5.522071785326864
1.3926073396506808,9.902557487717557,3.240721003349244
-9.274700195676695,-3.7389752981685604,4.897226709549821
-9.999853264380997,-0.054172786975815804,1.8081311490240681
-5.886355317848965,-8.08398546955839,6.9959217674376815
-9.911594537228108,-1.3267606150281697,4.776329119239494
9.27568250540739,-3.7365377100839305,9.470083652660984
-9.746880924192501,2.2356905531876134,6.981577271694922
3.9146895599225076,9.201913151591562,5.895515163736854
9.99923835041485,0.12341965642843504,7.978022515688794
2.6869426437086004,-9.632255147649497,8.035640925803943
-5.952356717227252,-8.035511776537922,1.571396878954977
-5.408541313710103,8.411164060811737,2.947904252705018
9.059523986548339,4.23379559463554,4.640028577644238
-7.885812365017287,6.149305923739724,9.088955569955953
-8.246096188435011,-5.657021977248947,2.555721506300687
-0.8443778636913708,9.964287532147393,3.8161848880481477
6.3228664228506695,-7.747345364625716,5.226177264600987
1.7083119838900682,-9.853003103911902,8.692722850778445
-4.5074513710937785,-8.92652687988026,1.1205659994806905
7.990246086075759,6.01298324327875,3.603043375165691
-9.984087292230626,0.5639157216454778,8.182929466968643
2.188906880954555,9.757493872225071,5.646737487274138
-3.7555977802670464,-9.267981728124697,0.9121672643668977
-2.028139553761145,-9.792172892186368,8.162223939104283
8.236382986599441,-5.671154670616492,2.1659043388917185
-7.455342792050052,-6.664672824154786,8.703140078460766
-9.460029847201042,3.2415791352465,4.980766255884972
9.71536257614783,-2.368909034552866,1.3033465777547093
8.953831318980635,4.452965833154517,6.675295370860816
-9.843519819107371,-1.7621343793367206,0.539997699081447
-5.9600478567382495,-8.029808811260065,2.521191446876907
-8.781474774184806,-4.783900165174425,8.941238695256143
-6.650390888609189,-7.468085499557694,3.0785031253988473
9.583978480848474,2.8543574546004864,5.483845537773241
9.496658977401683,-3.13264556995138,7.554350275044462
8.237540741882492,-5.669472861371332,6.53587712088591
-9.997400408407827,0.2280023551786409,9.515016697489202
-5.726774078829986,-8.197808161334404,2.115302174965187
-9.744422868660932,2.246379967128856,3.34455060166319
1.8302439167195046,9.831083724865293,9.576260720142258
-6.104727449364783,7.920372640789836,7.639421842496505
-7.575533455427261,6.527732597594841,7.348307328973296
9.032660604507631,4.290809061677745,0.08497657647070223
9.935561464237145,-1.1334100715830266,8.502719507227605
2.2939761286342417,9.733327977688631,8.614966205309791
