3.2266369978829412,-0.0,7.3687806071840525
-1.1435278107166713,-0.0,4.479877677744932
-4.396916221263043,-0.0,1.2646329659951383
-2.401979288672954,0.0,3.3599861197447787
1.0029318099013163,0.0,6.558145735529285
0.7711652284116899,-0.0,3.063973374682678
-0.3332054189984801,-0.0,9.42059792213747
-2.4665450450799,-0.0,5.029281960188134
-1.7948080650368314,-0.0,3.5607021094067735
-0.832577984125058,0.0,1.8916220038372988
0.42265907694229,0.0,1.1055769679538274
0.22899385955201468,0.0,0.8147416286843867
4.934016660114008,0.0,9.350673587326991
-4.780446014015043,0.0,7.909312479371619
-2.418725509200601,0.0,5.079946850236481
-2.9494446351985415,0.0,3.473947555166194
-4.101248641383551,0.0,2.8920878713496743
-0.33934072330627285,0.0,1.8303046077167173
-4.421898382868498,-0.0,8.682577368098316
0.9187856926346827,0.0,9.939774347347702
-3.197891807860136,0.0,3.4050253871341196
-1.8766886331086108,-0.0,7.217713991253611
-3.7609196973784744,0.0,6.3618421235491756
2.561767762221229,0.0,0.14701009122345843
4.250003795610647,0.0,9.646377952705944
4.129339573173977,0.0,2.844786601051845
-0.8275814634925571,-0.0,2.8071701501028623
4.074032835610083,-0.0,2.4875376068067045
3.0004152085255162,0.0,6.540685783608358
0.42775315841125816,-0.0,0.3847575243729684
4.9544835457170375,-0.0,9.357522198738822
-1.59036944081149,0.0,1.4617775303657776
3.5520174934597937,-0.0,9.242626757783748
2.523905759079643,-0.0,2.9488640927331335
4.5538599248890055,-0.0,7.011956708645269
-3.236421985004765,-0.0,9.233050849357404
0.2719770627928608,-0.0,3.821541136160731
3.748939357300458,-0.0,3.967886994625114
0.2985854192338788,0.0,8.536244166153637
3.294282812900997,-0.0,5.025412032933881
4.236314132394842,-0.0,5.232477649750652
2.0811516883012637,0.0,3.001999706201539
-3.7741236898953154,0.0,2.9505843310369775
0.257627035720861,-0.0,8.005414307546738
-0.37284376045544354,-0.0,4.743677936872443
-3.5063845942519336,-0.0,8.570104745293941
-0.6034103331623897,-0.0,3.6502890790345988
-1.0161922940394974,-0.0,0.48015580260588386
-0.7157268607188139,-0.0,8.68826977383851
-3.6616832048594885,-0.0,1.405542612092071
0.7755799861208246,-0.0,7.2608740474000975
-3.4404173609799535,0.0,8.581789528727802
-2.754354902762638,-0.0,5.10015894930961
-1.3971360589764215,-0.0,2.8657983264833975
-0.3917098607608105,0.0,5.196797529485168
-1.3485196880061323,-0.0,9.243543507196112
4.843980127179702,-0.0,4.398938018701238
2.5548965730252924,0.0,9.534673627516044
-1.5266936667768316,0.0,8.849568133722025
-2.2619582285282624,0.0,5.773759488760413
2.770844059384101,-0.0,7.4709793131736255
-2.86443273103031,0.0,1.4471967684716458
3.9687479302841364,-0.0,0.6476524593629085
3.342829623961946,-0.0,9.791398748860656
-2.149797036755551,-0.0,4.358976692706676
3.7856260289176036,-0.0,3.5864577600779435
2.0026591127920157,-0.0,1.9488019340034413
-3.8410962779585756,-0.0,5.208474217179026
-2.505504737648568,-0.0,0.8186836802920405
4.395340493648615,0.0,5.018085044212376
1.0894372967298316,-0.0,6.494483016106418
0.512184268592234,0.0,2.1133916528243923
4.611494519627763,0.0,7.054123198393646
3.808137966501363,-0.0,3.6973863082406733
-1.5005084934057955,0.0,1.0281595200265703
3.3241784672197108,-0.0,2.9217504469009423
2.2127563037030997,-0.0,4.976663820106024
-0.45471196679435333,0.0,3.1221654184428282
0.03845180582285668,0.0,1.3974180989388285
0.8114464721692338,-0.0,7.655965505616182
-3.1216360045099547,-0.0,9.767764343382906
-4.153163900189516,-0.0,5.133722547312147
2.547159185678962,0.0,6.45790421127316
1.4217706218821091,0.0,5.127245485097025
2.1716670691146858,0.0,5.846658414594758
-3.61911960235623,0.0,3.5043057367666943
2.14087930999014,0.0,0.6589999881657949
-1.9825725800795568,0.0,4.5511240031565805
-2.2777866014346735,-0.0,7.546451701723813
3.2793142461442137,0.0,8.827957973432323
3.093435605115542,-0.0,7.415020045741226
1.2555524072491275,0.0,3.157604812794265
-0.267099559854993,0.0,5.195649275535369
-0.42987261328149784,-0.0,2.4567102286386087
-1.0510507482524367,0.0,0.3363021357445184
-0.1365552086288957,0.0,8.693458865944564
-4.385991383805248,-0.0,0.5086211609156688
-1.4326184123545516,-0.0,0.9836429246622591
-4.489251147157759,-0.0,5.817607703981604
1.8712756372851735,0.0,6.130241733586907
-2.325879712984149,-0.0,6.513669347239389
-0.2337340151830436,-0.0,9.631541778797096
-0.21581485458512684,-0.0,6.379112411900692
-1.7666935126286287,-0.0,0.5733616093971794
-3.5503869025586567,-0.0,7.740757971185356
-1.8148325067231907,-0.0,8.715555197088378
-2.420433915241916,0.0,8.049360403205343
-4.332680875695985,-0.0,3.420523660198053
-2.650254085601169,-0.0,0.020267242338578573
2.7614757084971164,-0.0,0.7462103018853361
3.065453746779967,0.0,9.780223044973212
-2.0362907900757343,-0.0,8.79737125589257
-2.312712880858503,0.0,7.72511532359716
-3.7096476391172173,0.0,9.910494222826426
0.9591420732223122,-0.0,4.992200933619353
-2.4184886140969764,0.0,3.467877437003307
-3.7479506757227377,0.0,8.063402802663283
1.1199201872451403,-0.0,1.3857707236600536
-2.604939930714032,-0.0,3.6521123650516305
-2.300250446663157,0.0,4.117609805403707
-0.3804769885937087,0.0,6.152878350489829
3.2352852624446693,0.0,8.522646496270012
-4.973265323009755,-0.0,1.0050392041298417
1.4985886556445893,-0.0,2.9191409011594205
4.232099842371912,-0.0,4.3687859401112625
4.435249579133188,0.0,7.34192013202515
4.779294423728013,-0.0,2.650292018919828
-0.34982959158277316,0.0,7.598750277244374
-0.346539722379694,0.0,5.697326311354331
1.8873327207905677,0.0,2.516640312284717
3.088003033977713,0.0,8.719929039436092
3.5489352389768802,-0.0,3.6974624769577846
3.3680529085989876,-0.0,0.17787435857682832
-2.0317552329007817,-0.0,0.15496331329799218
2.730411911556766,0.0,2.928746128064202
-1.660617466432106,0.0,7.0104318915555535
-0.6724366457613318,0.0,5.323076692646383
0.750852194995365,-0.0,7.6770235679072085
-4.522677118012027,-0.0,2.538052292487911
4.857333777348436,0.0,8.340769869733046
0.933939892515655,-0.0,7.429639149866272
-0.9154399737600893,0.0,4.658254015379245
3.3643459556051436,0.0,4.659888508791969
-3.614115766628345,-0.0,8.938453453162985
-2.9889533276797264,0.0,7.532000223311595
3.989574339924622,0.0,5.042368146966573
0.2531382128240445,-0.0,5.05981338040029
1.8495429023054732,-0.0,1.7855159090318906
1.1623421930271027,-0.0,8.38442871304805
2.920681678184299,0.0,4.137140167392401
-4.286546874847693,-0.0,8.254877582584392
1.6436864060621748,-0.0,0.4976981143415271
4.442834394796038,-0.0,8.465643557857982
-0.7283429030175548,-0.0,6.689397843356629
-4.553382436466694,-0.0,2.658857007003613
0.1474707512211415,0.0,8.03517211844721
4.703532235708239,-0.0,8.503085269047869
-1.241496021694708,-0.0,2.721175425138499
-4.455670509064886,0.0,9.30359647297117
3.449254459734945,0.0,1.4708549504952007
-0.3202408838353632,0.0,1.1200997829036319
-3.849249010955651,0.0,9.836744370597348
4.205159289652718,0.0,8.334716973408113
2.3253082357544317,0.0,7.980512402313478
4.435366173604668,-0.0,8.47943631186077
3.757877546740959,-0.0,2.1556237474047624
4.602392756535077,0.0,5.230695138619749
-3.1728273411898043,0.0,2.3797280435253843
4.91282276283497,-0.0,9.18115263503829
4.278796345070973,0.0,0.9440085498904505
1.4095332316321607,0.0,5.177006644170985
2.090726454948201,-0.0,1.1707711882615357
-3.731296240558315,-0.0,0.3368551912114004
-4.97989071805589,-0.0,4.36251171914698
4.3149985948122325,0.0,3.901980461834431
1.3026586456251388,-0.0,1.7217310599130875
4.4195135066993,0.0,5.990183657527524
-2.421999793355808,-0.0,3.533405727145386
-2.953255470076451,-0.0,0.12636770141970177
-0.44254503367411435,0.0,7.203346661479102
2.9372793492241045,-0.0,8.360509858912748
-2.6713236011012964,-0.0,9.109653984042808
1.7786677577521093,0.0,6.954521340833625
-0.025146816700883923,0.0,6.6663836694955405
2.7057364968044686,-0.0,1.4673475135673553
-1.2259733477895207,-0.0,2.5154976185002353
3.0350869741116835,0.0,7.75192271926286
-3.125037383919187,-0.0,5.005369466969238
2.819917730396874,0.0,1.8651248571447498
3.9243104990427646,-0.0,2.534727174363155
-0.2640145134245575,-0.0,7.536394831566301
4.018596214581417,-0.0,6.8616275529273825
-0.09666419110406221,0.0,0.9538338530982904
3.153513292927589,0.0,2.5871701947309775
-4.7031016967944606,0.0,0.23225609743779518
2.174920554851295,0.0,2.231411868218338
4.792850989889681,0.0,5.219716020773064
-0.6857392243335181,0.0,5.047077997034415
-3.5359800708774793,0.0,2.101893477809135
2.739006778869558,0.0,9.29139036800803
1.2625234255625983,0.0,3.4008835400816793
-2.7696872451488153,-0.0,0.7295004933597082
3.3242407517852888,-0.0,4.867104709733708
4.289374782233088,-0.0,4.503179913340157
-3.1666257866918146,0.0,6.809880270481754
-2.993654703795756,-0.0,0.7797341866703689
-3.3222333426987616,0.0,8.673956831160014
-3.477549790858748,-0.0,2.2589983748228204
-4.817464378945622,-0.0,0.6812421295258597
4.902385320815847,0.0,9.887487537888136
-2.6193928157845003,-0.0,0.649697499105687
-3.1562123137238296,-0.0,3.0463761260329014
-1.8768735699832173,0.0,6.069469229306606
0.5984483912496075,-0.0,6.013952446693027
-4.766604290382912,0.0,7.290652114769504
0.5991792017721764,-0.0,8.82477527848852
-4.8972961957504735,0.0,6.607594280818537
1.1635659875176807,0.0,7.129428480837556
0.36244761569210415,-0.0,4.067986966871428
-0.026102487833223886,-0.0,4.104653112368809
-1.6071774118964899,-0.0,3.757497702437491
-2.9275088716574746,-0.0,4.982429597335348
-2.270091668709202,0.0,7.708879834854426
-1.7625621897238974,0.0,6.469853122603709
3.7213978808500414,-0.0,2.452857685627471
-4.334691602407361,0.0,1.792137734760193
-0.08355378392809976,-0.0,8.933449867694845
2.6670102908781725,-0.0,4.173781659261886
-3.3443873248143365,0.0,2.5188964896277852
-3.3438095061251625,0.0,5.733281364199668
1.5684992519831398,0.0,6.139763878042136
0.12086961824505416,-0.0,5.689040554590608
-2.072240708149047,0.0,6.4937738413324455
2.2808449098747974,0.0,7.943095153159964
3.728246240505866,-0.0,4.397198071609426
-4.630246929530708,-0.0,8.734659172614537
4.559208884554006,0.0,5.396067471302272
-0.16306090916077598,0.0,3.4310346132112213
-0.455098995010218,0.0,1.2995550123032706
-4.838175099164217,-0.0,2.6487568137805573
1.2722478447818186,-0.0,1.1792921687489288
0.8795396323864912,0.0,9.26679601259903
3.732080525566791,0.0,4.620249246830282
-1.0692925017580601,0.0,1.8889054036435449
0.6562115885627751,0.0,6.750025452924422
1.5355234777112936,-0.0,4.669455753929936
4.754720449893956,0.0,8.907547870468258
2.19754826332215,0.0,7.100284517210862
2.848290638390859,-0.0,5.3644796863323085
-1.056957623488426,0.0,8.912507909879805
-0.0537836621950627,-0.0,4.8512002452924055
-4.755977103357958,0.0,5.91850370636711
-3.4709309602298735,0.0,0.9326614646120979
-3.6021170176351234,-0.0,6.300936016026188
-2.080843038136103,0.0,9.742296198372667
1.0499702516486986,0.0,0.16208722192096237
4.3231271998707275,0.0,7.9013753222121474
2.5031065338023217,0.0,3.4114036574841986
-1.6011623446034429,0.0,2.244246918818157
0.5845144702934058,0.0,1.4811900385236043
-3.2826396085880516,0.0,1.1136194008138611
1.0196762298112572,-0.0,7.261796149025796
-3.6840799209109742,0.0,5.469144530321664
-3.259274850186272,-0.0,8.039954697803806
2.678058973728228,-0.0,6.710210638264831
-2.810443733479122,0.0,6.1040159147896045
3.2217135370184433,-0.0,2.632405686841195
-0.0011826914201418237,-0.0,4.565236324882985
0.2602285300581786,0.0,0.4527830350621209
0.9771242178677453,-0.0,4.664537319035892
1.1586703874690762,0.0,2.189750960243808
4.187395782623295,0.0,7.917779074607947
0.10533499939115565,-0.0,4.938784457560783
2.9231444942757068,-0.0,2.4072038102146354
-3.9370079740489503,0.0,7.981801761810238
-1.5764471354065523,-0.0,4.735029987571004
0.5978211721914484,0.0,3.0749070296013006
1.8758281445980873,0.0,5.831227903403397
0.002000393700123393,0.0,7.515799527379446
1.0776908321856893,0.0,3.495326229453777
4.605192869613633,0.0,0.8209673665822459
4.253390850461365,-0.0,5.25503997880071
-3.482359656741816,-0.0,7.0455435260769725
4.518068242787983,0.0,9.389257976800186
-1.8124356941947928,0.0,2.977269435082369
-1.1532663457781278,-0.0,5.273688785676111
4.234579787322002,-0.0,7.2491985172845865
-1.3139488378266362,-0.0,2.3879408920812395
-0.4208913426497851,-0.0,6.9566262037951665
-2.764743304350681,0.0,2.080842399184254
4.342805940442929,0.0,5.7542584556746075
-4.611763825885966,0.0,4.2857332947433955
-0.46031505304822584,0.0,7.817619702400137
-4.18448720405459,-0.0,3.4440032865799983
0.6516555873750818,-0.0,5.626577106407514
2.135736500010582,-0.0,8.030564558503745
1.9139654935938633,-0.0,4.0884854925151615
1.2631095181591423,-0.0,7.036818133411186
-3.7133350782074217,0.0,9.631330167455852
0.03752868099172635,-0.0,2.4489383492140027
3.317874878940109,-0.0,4.9299403926318695
-1.2241837317431137,-0.0,6.1178068587500025
-0.11567220669809197,-0.0,1.4815034846907826
4.232790937897136,0.0,6.327669517617532
-3.8229961923730094,0.0,4.2193198790581965
-3.4689420004264546,0.0,5.058697913219654
-2.549934699798758,-0.0,5.43806531545163
2.6234758725065532,0.0,2.752216924183062
-2.7357058488518735,-0.0,6.911066485986586
0.5308423893887071,-0.0,0.4386333750879101
-1.7512071415004826,0.0,9.48890876397088
-3.5227917508821225,0.0,5.440554130777518
-2.32045932602696,0.0,2.8691664716773335
-2.232175783214554,-0.0,1.0298343567705182
1.6400374841508891,-0.0,3.456658103485993
-2.4828845242973605,-0.0,7.868540761227925
-1.4212509074522894,0.0,2.472690750159041
2.5231884658393455,0.0,0.66909003339921
3.419375053399847,0.0,7.251941357069807
4.4714858864687415,0.0,2.4249063950600993
2.501517051656262,-0.0,0.743990583871561
-3.3148131448097296,-0.0,6.435480232869218
-3.2617022471309154,0.0,8.507866091605244
-2.6819113361521985,0.0,2.6400129963329477
0.9519038081199027,-0.0,3.0786617996857113
-4.909383491287458,-0.0,9.300136611428226
-3.8939777191925815,0.0,8.508394349439044
4.596903518005561,0.0,1.6494936118460612
0.7865938513445392,0.0,7.713130790174585
-3.3851551920231215,0.0,6.736073015704104
1.281085193123147,-0.0,4.2693248763454195
0.5518304534059049,0.0,9.40872140845096
-3.528819702157877,0.0,8.93307962101753
2.2075280003766307,-0.0,0.5157752430463958
-1.6710430111769858,-0.0,7.9718031477384
0.17979496965703445,-0.0,8.996442352271
-2.087141678074337,0.0,7.4579075170515665
1.3858324903122687,0.0,8.079227965579163
-2.8421709579744103,0.0,2.4150142398435657
0.799103253024831,-0.0,9.497000922896397
0.24604795107500577,-0.0,6.586832339393621
4.690668206974953,0.0,6.388735866138758
-2.5957591913699654,0.0,8.10095700880573
-2.1266164639338636,-0.0,0.08823826090094578
2.7308592029022503,-0.0,4.869907658943732
3.287918731795453,-0.0,1.5969627821020649
3.705645282075518,0.0,3.4796365345976064
-1.6723530416191457,-0.0,2.5544181992280124
-0.24788377179800758,0.0,6.1540108485033205
-0.24168509671929184,-0.0,7.99802740407821
0.7013909994352163,-0.0,9.535714734937317
-4.5536462925954115,-0.0,5.028711292727057
2.9679087594049003,-0.0,7.501872104582855
1.6051336580628672,0.0,9.397233629065296
-4.955956900175325,0.0,7.81023134584081
-3.9727328355059752,0.0,4.118726994472349
-1.2209621910421475,-0.0,4.036655347293658
-1.9479675891234194,0.0,6.524117607911205
-3.3546996317483755,-0.0,4.478261691550926
1.414946340695451,-0.0,2.1268070844698164
1.2089580776279296,0.0,8.100533945848523
-1.2608502814559996,0.0,2.2559597309785118
3.166877670405066,-0.0,1.7729899643558333
1.706487233376155,0.0,1.0262804149222093
1.4956941404571955,0.0,0.9922772568079297
-0.1385210270957571,-0.0,3.3466917845198543
-3.8154644115456335,0.0,7.971344168673751
-0.03182792256620659,-0.0,2.1723141412517855
-1.3692057973883909,-0.0,4.681990570076636
-1.903105342869118,0.0,7.59436425795723
-2.5874349422980414,0.0,8.51053176235003
1.6534111858089395,0.0,1.610991749604691
-0.8325890264763414,-0.0,1.1202611492640913
-1.3983233651272942,0.0,3.71965352125168
-4.627537691209907,-0.0,6.215471770010731
3.5057087761683747,-0.0,5.778409557800591
4.544094412851441,-0.0,4.164770833685885
3.083183400207834,-0.0,8.347594646564232
-3.907686320938142,0.0,2.3447332171484736
3.1696778788995728,0.0,9.46204876495995
-0.06397181656084827,0.0,6.9575184827531045
1.9739179846105281,-0.0,7.008504181217815
0.2911425494057651,0.0,7.950244682071316
-4.069986586826333,0.0,4.628022316332596
4.470974906443507,-0.0,0.6882266396947601
-4.211141633237949,-0.0,7.41075614464767
-1.9000030373547194,-0.0,5.151409484839855
2.5193222732546774,0.0,9.856083726188384
-0.4198435319863414,-0.0,7.536538809351274
1.1255549916059049,-0.0,1.7153292831999767
1.4586762757350102,0.0,8.658982713497934
-3.5143087165753526,0.0,5.629049255014574
4.120392151958234,-0.0,7.420871095085214
1.4658771338186127,-0.0,1.1647085585495076
-4.891573106583664,0.0,7.8936344703007375
4.163204331949304,-0.0,0.06087428185206245
-2.53932092164682,-0.0,4.9869913692548575
-2.1056427668215285,0.0,3.129892118923525
2.271813468439067,0.0,5.003062897997975
-1.2714452450084945,-0.0,1.2068031678898805
2.0509014587974637,0.0,8.353915183969496
0.522420918978117,-0.0,8.467512763678824
-3.6244993978771944,0.0,3.852120525902726
2.7496931184888496,-0.0,1.0495604578918682
1.2012106358850427,0.0,0.4124454292774782
2.2997893454414307,-0.0,2.3552441815124157
-1.9809808948885343,-0.0,5.099761355861686
-3.9555647971988925,-0.0,8.422942879618134
-3.278255071054562,0.0,2.9988637838032126
1.8428381830556573,-0.0,0.48518422307383235
1.2604216030150728,-0.0,7.669392618809559
-3.186389663817285,-0.0,1.2582088000971026
1.0467689695459181,-0.0,4.274468844628565
-4.893891738426216,-0.0,4.966584182078501
0.760235218356411,0.0,0.9591829013771769
-4.906659132157358,0.0,3.55932057451224
-0.7860447162204365,-0.0,7.305383982024319
0.3907299410622622,-0.0,6.374158474400552
3.85276712522574,-0.0,8.867676941938022
-0.7135871603601174,0.0,1.445894816711304
4.522360951859715,-0.0,6.715440774745803
-4.266447584182346,0.0,0.15491548933177945
-2.7304802386489713,-0.0,7.6295422434515885
-2.334700550154677,-0.0,2.601732041433573
-3.214333959223027,-0.0,6.262970558224432
-2.3455034214076043,-0.0,3.723650515121344
-4.403869832467887,-0.0,6.7338950267092095
-4.184552311665593,-0.0,4.430288667693575
-2.661281736652945,-0.0,0.09851601246119168
3.2069081309250604,0.0,2.565107585733256
0.38889718898958203,0.0,4.59630141568408
-0.6703924399159145,0.0,8.492303087449617
0.758694446978424,-0.0,3.6522145776784
-0.019404117463324155,-0.0,1.8392396189305993
2.670013249965253,0.0,5.754784983623493
-0.30265846030909205,-0.0,6.721052597059963
1.3932512378682882,0.0,9.763659377538742
2.3718571274982203,0.0,0.29897538044239225
1.0026080928668724,-0.0,3.2588957406240446
-4.5894656035094155,-0.0,0.890500379452166
-4.955630658496251,0.0,5.059196217475522
-1.2561265139888644,0.0,9.950475691251782
-4.9555521873065995,0.0,3.4452103849311344
-2.707062736415015,0.0,2.5467895831059506
-2.2472613189823223,-0.0,9.65705583006912
0.41249279596233035,0.0,2.6866163838434307
4.025406393268112,-0.0,7.077001473114574
3.974534843741284,0.0,9.633246657039779
2.7791078891265353,0.0,0.610221908426507
0.25319937659912806,-0.0,7.417888942338947
-4.698668874927574,-0.0,9.37943680252281
0.2793641175355521,0.0,0.36638281722662036
1.566553261190461,-0.0,5.645528330727425
3.832334564866434,0.0,9.426885687229952
3.539539177077339,-0.0,6.768315291203323
4.736209911177842,-0.0,1.2469254067808522
-4.824273984580648,0.0,9.74083913110855
2.56163998698225,0.0,6.261194376349275
-0.5088037940805556,-0.0,6.773764454593058
-2.460400539523616,-0.0,7.0018268086971105
4.393463251152204,0.0,5.46112814678796
-0.9407486053860337,0.0,8.583393503758156
2.4523283192444634,0.0,4.363319232459176
-2.437601608394803,0.0,4.156054194721341
-1.2685232134430913,-0.0,5.977042413923595
-0.7957266527484419,0.0,5.295060528960358
-3.750862343959459,0.0,5.367077309387595
4.044445338651695,0.0,7.8464515266098465
3.220458761415977,-0.0,0.5925133640650126
4.104804258828203,0.0,2.9075045234848873
3.4270872312939407,-0.0,5.341838701307049
3.2257075010958234,-0.0,3.294641563255114
-2.825048796143872,-0.0,4.486628402926561
1.9214943649053329,0.0,2.794712026366639
4.10886171445784,0.0,3.10823333497827
2.5514328405871103,0.0,8.503336002842495
-0.7311310187500186,-0.0,7.7119828050775
-2.127538590919058,-0.0,4.788632973189227
-4.252674239030987,-0.0,5.7397271981114315
-2.7991613536451085,0.0,8.86768460601169
-3.4478978403538885,-0.0,2.7601688787188383
0.36803701304449876,-0.0,2.656419004582827
-3.6970881173800105,0.0,9.593011755348344
2.287634596052336,0.0,3.715961213152188
4.309608974892133,0.0,7.868958131549819
2.4910023115186353,-0.0,5.241154853289704
4.300546202838756,0.0,6.839356911073562
-1.6810174412418066,-0.0,7.049062559481937
-3.268512765010465,-0.0,5.532892759401978
1.2867622685566804,0.0,4.823523204942996
-0.7547059800147216,0.0,2.920333125593897
0.6189430053903111,-0.0,2.7201862735902607
-4.071859116679294,-0.0,8.767241216642198
-0.5024861777966094,0.0,4.499565824516079
4.202524127082759,0.0,7.39183900195567
-1.0143239853770925,0.0,4.9878245191696555
3.7499591726481407,0.0,7.885961762240386
-1.796981328743814,0.0,5.836469180035662
-4.697568913661434,0.0,3.300811760832887
4.791960844693723,-0.0,2.9543985972590514
3.6960593485286286,-0.0,4.725217037554749
-0.7125237167305687,0.0,0.9005391138064844
-1.2762106139490392,0.0,5.658433749463248
-4.575349895126692,-0.0,2.3532604009411138
-0.5525625890064223,-0.0,0.8701789068754617
0.7429428891330392,-0.0,9.721652488154971
4.366067251277204,-0.0,1.8950608135273617
-4.19331647760805,-0.0,7.56199788318992
1.0477008437649915,0.0,9.008017170021272
-2.17562192465957,-0.0,8.459219430017432
1.7800007474761514,0.0,7.583169314705791
-1.379220454346407,-0.0,6.122287054131061
-1.0568389900023678,-0.0,9.583341005379008
4.915470246588228,-0.0,6.76110650104064
-4.787383951415277,-0.0,3.8281806488515455
2.6450426080587777,0.0,6.4067233032154824
1.050794171579561,-0.0,8.524774271258096
-0.714109075965278,0.0,2.7575192439207976
2.9305575778576207,-0.0,7.964903405293901
-1.8524102105774087,-0.0,0.9835770349484396
-4.351810002303892,-0.0,5.946294471221531
-0.1515507883389089,0.0,1.2927454011998585
-4.962923867977722,0.0,6.754956149569658
-2.360000111475753,-0.0,6.070037389300962
4.642069345352117,-0.0,8.80033269986048
1.9605191237612785,-0.0,8.260415210165226
-2.544442903822708,0.0,3.5638851047319022
-0.42750671948373564,0.0,2.4813660608884014
-0.7626203256080877,-0.0,4.576139796346607
1.7979664293786646,-0.0,5.351962975020949
4.491598480785983,0.0,5.044792320948424
1.085703087408162,-0.0,2.5302818113073045
4.445028831671147,0.0,8.172642513695063
1.811605066269898,-0.0,6.679631047164234
4.275156038238871,0.0,0.1868236492617159
-4.488796909537177,-0.0,7.032701444407472
-3.6591675512562336,-0.0,5.029320399923845
-2.8839380623332014,0.0,3.9032443592163304
-1.5024644158251577,0.0,0.2982567161769334
-4.467624726950675,-0.0,8.082641213419736
0.14894715797121205,0.0,8.905429699867257
1.207658716161999,-0.0,8.77746705937869
-4.03671084034087,-0.0,4.968915689008437
4.152870632600962,-0.0,0.5642189914782914
2.905525683837271,-0.0,4.0048232086967275
1.6925272789165013,0.0,1.858954218821809
-3.4047761191283534,-0.0,4.171866704240825
0.46276386820024884,-0.0,8.889624798288565
-3.105491009689847,0.0,3.4037896770969267
-2.6607222945401867,-0.0,8.12091147384034
0.4742073257697377,0.0,9.271745588136573
-3.973412744609164,-0.0,6.262089094859579
-1.9592803606688092,-0.0,0.8275813699098045
-0.10741059867214964,0.0,7.433763021850615
4.1063164008602815,0.0,9.573277804347814
0.7313723188133336,-0.0,3.9712550876172537
-2.390642305883617,0.0,2.419331969987597
-4.7229818907302725,-0.0,8.799206888527822
-3.208292433032043,-0.0,4.112388586353488
-0.8846379039613206,0.0,2.7652647765779035
4.600315407176355,-0.0,8.223321444194632
-1.613972315077462,0.0,7.791064568613111
3.4353152818443644,0.0,5.53488155141845
0.37603402822131593,0.0,1.318875974814756
0.39373691017581147,-0.0,7.952094667414965
-1.767896649643188,0.0,2.6044742656425726
-0.14514568430694652,-0.0,4.596345639298781
-3.3683654615737724,0.0,4.158816822245248
-1.3253928713348473,0.0,9.418868072615345
0.6341336690527599,0.0,1.2059394977664706
-4.057281355996078,0.0,7.7731236185116845
-4.481323875235147,-0.0,9.44132966412711
-3.355040396649036,-0.0,6.64261562553984
1.558057748941637,-0.0,9.267463743953838
-2.2039006767625127,0.0,2.941840630496423
3.0230664465260504,0.0,4.053684553817243
0.6642556956397527,-0.0,5.41975319255457
3.8299727367069614,-0.0,0.36530595146453626
3.592316224979848,0.0,5.757350283962688
2.733620377114164,0.0,3.8762346108147225
3.098225171398341,-0.0,2.8200933741290712
-4.861506384486879,0.0,0.06630264990015622
-0.37247454599943053,0.0,7.01618437880609
-2.3933225320842544,0.0,8.10985264565089
-4.466374186751791,0.0,8.880845752780528
-1.1952073551983056,-0.0,3.2282328285082276
-3.413935475149905,-0.0,0.7517441177068862
-4.162501654642533,-0.0,6.803981488123751
2.0805177186580615,-0.0,4.523107401572016
4.278061118046955,-0.0,6.909951655131623
2.557517431227999,-0.0,5.638273780748516
3.4549990415211127,0.0,0.4781622665493257
2.9069306523181315,0.0,6.23353557743752
3.644875479170755,0.0,8.65214900243238
0.810300952391515,-0.0,8.999833791996885
-1.875655601880154,0.0,3.58073894914656
3.687591324337689,-0.0,1.6579933608645336
0.8692030918466254,-0.0,1.6578056635128668
-1.1794049026373377,-0.0,8.715516445495968
0.16667610087882534,-0.0,8.26108171878987
-4.84049585965494,-0.0,3.1311091943373546
-0.43898740646456935,-0.0,4.56830806846421
1.768523411701498,-0.0,3.9930987014077637
-4.564662385827932,0.0,0.16568833177348363
4.083510999270217,-0.0,7.7080256606265625
-4.117402735912313,0.0,7.082769589991228
-0.5832655962199362,0.0,3.1277823436448693
-0.5017418283652453,-0.0,7.551981339773183
-1.3513634394491991,-0.0,2.3078858837027525
-3.542715219984083,0.0,0.814818003630261
-0.8606270122838566,0.0,7.943268222260668
0.38352099314777677,-0.0,5.990153091196118
-1.8482547488284196,-0.0,3.54624526258013
3.514821385087894,-0.0,0.6362152727086468
4.036735929420474,-0.0,5.01242091217291
-0.26963342287718683,-0.0,9.78146332476702
1.9710209107961418,0.0,5.520009034002474
-2.8985978119376754,-0.0,9.249208557258783
-1.797081617639228,-0.0,4.650136885537449
0.8680151303650907,-0.0,9.840906439326789
3.995159165027493,-0.0,0.9576576643758994
2.0398511186178414,0.0,7.943145656077623
0.20261892232747103,0.0,3.6132091704091307
-0.10851993903543078,-0.0,3.138818649242152
-0.43555400388661014,-0.0,4.676414898415232
2.7481876944684904,-0.0,3.141860067468415
-0.10887756028799656,0.0,0.45242487619512217
2.145340827068668,-0.0,5.84428845734489
2.0414489171311576,-0.0,1.3656732458815324
1.979411907177454,0.0,6.858570413582813
3.395027424336287,0.0,6.792999477096736
0.5491082449500251,-0.0,9.459810521989995
0.7855355417657583,-0.0,8.23270894157292
0.5097509798255917,-0.0,5.493266721753613
-1.5001718767169658,0.0,0.6973756436211775
2.8716127963564695,-0.0,9.01834588666364
-0.24377709287006555,-0.0,7.366268118730166
-3.376265970676562,0.0,6.181977419950816
2.244860460023114,-0.0,4.655774019471882
4.43764582532231,-0.0,7.450272926739637
1.2098389286142208,-0.0,8.859866325600485
-4.7120875220829825,0.0,6.246738999524489
1.1451116731316513,0.0,0.6986635518582951
4.965310948241885,0.0,6.902333459226426
2.189267012670065,-0.0,6.261132900740876
-0.7381706054789938,-0.0,9.72257309858209
3.3412477497935034,-0.0,3.6021949234411235
4.977770335444837,-0.0,7.970399670157505
-2.70435843309464,0.0,5.403645213824406
-1.0694421490118566,0.0,5.0044948367764395
0.6544528058805743,0.0,0.6056501812678738
4.080927347016026,-0.0,4.196084647850935
4.805017655469188,-0.0,1.6935233462776256
-2.2094728054271826,0.0,4.555661161231597
-2.366173117550896,-0.0,6.776960304876017
3.022203427380563,0.0,4.766490906572938
-1.8318848921104725,-0.0,7.2337720517436175
3.4479380393613877,0.0,6.915236664207798
-1.7833443579696395,-0.0,1.5115091405435532
2.1144442424192444,-0.0,0.8985744557074182
-4.756618787032913,0.0,6.155517537614605
0.5294817508814598,-0.0,9.301443869621577
-2.802014430357466,0.0,1.8900831044314303
2.4421315381982778,0.0,4.099709891114866
-0.1346154122281762,0.0,5.193821080914631
-3.324929832992872,0.0,8.66782801272724
-2.693031667264484,0.0,9.012648459052938
-1.1439937088067254,-0.0,6.1617303591087165
-1.8085526282725384,-0.0,6.101758327320192
-1.0130519560399087,-0.0,3.697600062081471
-3.401805952164234,0.0,5.479259658581334
-4.965119914317857,0.0,5.50018169039601
4.8380660550393,0.0,5.289263859557912
-0.8351239455477055,0.0,2.2583448202908754
-2.8361488574936544,-0.0,0.10026127290900466
4.611968244250671,-0.0,4.4244608215190615
-1.4733733801097326,-0.0,0.3884077931162
3.6610600086149683,0.0,1.150398377428904
1.2385953236635405,0.0,6.292135149909004
0.3526516597757867,-0.0,3.6540305190923004
-1.246852998244845,0.0,1.300514894084397
1.7999833422048939,-0.0,5.23325486417191
-0.398702298051018,0.0,4.848370476016701
1.4879708992358887,-0.0,5.565383108816767
-1.2483665375370234,0.0,4.749757278777399
-3.833245746652707,0.0,3.323101526820179
0.8715200533925582,-0.0,4.696595452447685
-2.8579868852462997,-0.0,8.34326549128137
4.382872427836632,0.0,7.510477655305143
-1.4897765704755639,-0.0,6.856917960103407
-2.0407814724649134,0.0,5.250896974854601
-0.39803991391303306,0.0,3.0000312791184203
3.730436280666031,-0.0,7.782622339096239
2.357719267604481,0.0,6.255476778616038
3.3354710947880983,0.0,9.81837369704958
4.934791660353991,0.0,8.569798613247478
-3.16196349845152,0.0,1.186603887033808
-0.4892497111520999,0.0,9.903997153367499
2.0702587062032984,-0.0,2.8524156348307885
2.1521169154143536,0.0,7.557621637708452
-2.5597440433528282,0.0,9.569917774462638
3.2505742453639708,-0.0,3.907022393475934
-0.33221969043596755,0.0,6.533063168098579
0.0007633194679690369,-0.0,7.059262821185168
3.0186278514749523,0.0,2.481154765154625
-4.039576486075602,-0.0,6.470661399384595
-4.2201884707248,-0.0,7.3041098303013285
0.7131194924748097,-0.0,7.140587605634825
-4.837918686131402,-0.0,9.735602154701917
-0.13269707324684132,-0.0,0.7346589799595304
1.6934807909984206,0.0,8.638854881785873
-3.8672226436515498,-0.0,5.072344937449536
-1.1670014333847545,0.0,6.960218017129243
-0.04605010574435853,0.0,0.28823067901543875
4.493430194914821,0.0,6.596183815995513
-4.287866337318684,0.0,7.256170314962215
0.33653598645045246,-0.0,8.69160955503807
4.750666235924231,-0.0,5.862024161080064
4.352532683495709,0.0,2.6211811433880006
1.589386639183441,-0.0,2.9344134987879067
-0.34954535227203376,-0.0,0.06500253563677671
-2.6964119771165507,0.0,6.423251398931765
-2.2814361020098985,-0.0,9.417310399087077
-3.9278750148890773,-0.0,1.9388418167411037
-3.434859013153532,-0.0,0.3777220934778591
-2.4198154670741867,0.0,4.962624070966858
2.939525577084161,-0.0,0.785526334231571
-2.917167591499555,0.0,1.265756152869203
-2.828876034593115,0.0,8.554120455164291
3.950655260178836,-0.0,3.2787087068967447
2.9533472022887297,0.0,2.8575910039751298
3.5395979101718797,0.0,2.0556325206635737
-2.1258655992838182,0.0,7.01051378172025
-1.5282145418754178,-0.0,0.5339130747327958
3.3945342461524284,-0.0,4.66251070932115
2.474271987185661,-0.0,8.61110233881693
-3.9797926576769314,0.0,4.46967404280266
4.9591849183767325,0.0,0.5299818841426418
-0.888834802206061,0.0,5.8252469948299055
-0.7331232236915453,-0.0,4.612543319127475
4.421269741039541,0.0,9.297659698876052
0.43832321058266066,-0.0,4.261223889816803
-0.07740995911308057,0.0,7.378388635432106
0.17239268394793061,-0.0,5.431549248845043
0.29033934967974795,-0.0,2.6004000288101183
4.298846989627709,-0.0,7.286162814923202
3.4858175305022288,-0.0,4.966486204536279
-3.729708118345644,-0.0,2.8231645987239604
1.0911731949848869,0.0,1.1855082058626132
1.00840401426736,-0.0,0.4617229726578642
0.7346712560631419,-0.0,3.7745054748539597
3.320730157675156,0.0,0.7794918688866903
0.7682549910221181,-0.0,4.188619979494268
-1.9294732506623935,0.0,9.801576149342761
1.4373219293626316,0.0,5.25719634475572
-4.745494939892989,-0.0,0.7520743875805258
-3.7126586985979793,-0.0,9.272451419136615
-2.299981828759774,0.0,9.148316566838492
3.96934271909569,0.0,4.350588298248175
-1.3655345441901678,-0.0,5.257462406938288
-0.311757025795506,0.0,7.1195709982530015
0.8157184613664625,-0.0,5.153211741287329
0.7841929139519332,-0.0,3.461290466565287
-1.3320638277245977,-0.0,0.5179544562988414
-2.6362376998051875,0.0,5.901928095987267
3.8563115390090887,-0.0,2.9234704196548664
4.1782722805087245,-0.0,7.022841826740683
3.4596698780478476,-0.0,0.5160002133631636
0.700129968113754,-0.0,3.7798134130519365
3.067680574896965,0.0,7.294825571263144
1.7441741253461884,0.0,0.9561386298610008
-1.1089799152466784,0.0,8.382694502714635
-4.3447287623148965,-0.0,0.25397096344957903
1.3042300226793713,-0.0,4.762190105188331
0.6216165912064153,-0.0,5.514672023946384
0.17098381820122133,-0.0,0.1789642313840456
4.998194936828715,-0.0,1.7625303603096354
-3.86573034032749,0.0,0.45489960096807835
-4.060469720672336,-0.0,1.2690969508010241
-1.1443788941727562,0.0,3.9945220814975437
-0.9563079110150896,0.0,7.979224348891937
3.2726280265238925,0.0,6.056907451341282
-1.1973671124469165,-0.0,5.0516004291654335
-2.171489369036985,-0.0,6.9693422682469786
3.0442718957433357,0.0,2.312185693988984
-2.1675487324993337,-0.0,3.3055180509585913
-2.7473944517905604,-0.0,3.673459404831416
-4.312300677208734,-0.0,7.708003140714785
2.209123627983758,0.0,0.14385531568229637
-2.230906909494487,-0.0,6.495503461584545
3.902054493431195,-0.0,1.2198833087286176
-0.20432740755688572,-0.0,8.959575233320487
-1.9926811791234678,0.0,1.1962785824386946
-4.6455910553655215,0.0,9.450459792569553
3.45059001050553,0.0,2.6596563180493815
3.1817822315791764,0.0,5.0455188263693085
-1.636650269702492,0.0,6.794733610585912
-2.4946589004882123,-0.0,0.5417772025110723
-4.876825157154304,-0.0,9.849227763751013
-2.176739063348699,-0.0,6.585550158122754
-1.0740997061890711,0.0,8.765823212672988
1.2989536791583178,-0.0,7.649567624881518
4.2330694064061465,0.0,4.774037013306518
-1.5769929527156556,-0.0,6.105519369624258
3.5667947529897814,0.0,5.2295464823437285
0.8242676573940821,0.0,7.876156613840188
2.4538165016239533,-0.0,4.00777445002582
3.1273015694690587,-0.0,6.534253954712824
0.38681105356728973,-0.0,1.7140589282214924
2.477933331755169,0.0,5.852922271755109
-3.11776673976388,0.0,3.5104714999424624
4.986062622468732,-0.0,4.9042877514276375
-3.4921841018501807,-0.0,1.224080227024802
-4.4172875179159865,-0.0,1.4757012253136725
-2.0822307737758017,-0.0,1.6636431910452298
-4.9566285424178265,0.0,5.628482639136942
0.6489568268682389,0.0,5.446052638368915
0.7412811048751322,-0.0,8.843908743622066
-1.332183252105893,0.0,9.418433281651499
4.619388176691387,0.0,9.437196805298038
3.6941719833911124,0.0,8.682335110038874
-4.31634216581358,0.0,1.2694495056000499
1.7711760650169328,0.0,3.37741650845219
4.362932572287049,0.0,7.229135866270174
-1.7786033829299797,-0.0,8.858666670497398
0.04580657296260782,0.0,5.456389261936718
-4.401923282605593,-0.0,6.4477653615047625
3.418489366026628,-0.0,7.459638569886136
2.3686998369883505,0.0,5.014300617647511
1.2670000282947824,-0.0,2.605943223983993
-3.0413819834174505,0.0,2.7618992578472277
2.079460914989122,0.0,0.6027614054160446
-3.100334841318997,0.0,8.239999610437597
4.803556153641577,-0.0,7.150998139150293
-3.620362088151805,0.0,5.226743683244002
4.563324991628477,-0.0,0.9808848768792233
3.829801616390194,-0.0,2.047304685920656
1.0983465604329312,-0.0,0.3461279366090697
-1.8297734048995662,-0.0,3.89060669053942
-3.258015003387328,0.0,6.098610589237039
1.265389860107785,0.0,9.1191347287292
-4.485168062922106,-0.0,5.17244657101937
-0.8046960434787409,0.0,1.11554223575846
2.4041150981570905,0.0,5.213863268115056
-3.6048654268007807,-0.0,0.8544685155831067
-0.11644456188052654,0.0,0.533109302917093
-0.8624620702970198,-0.0,8.816607550936334
-4.6584116012485115,-0.0,0.3052677789764435
4.593600789054123,-0.0,1.7950877500972695
-3.318961393993346,-0.0,7.948848944261487
-4.465194765797368,0.0,6.648248045103622
2.966717211531249,0.0,1.7166933270843232
-2.6976839201621647,0.0,0.7628307799442413
-3.6192861848562554,0.0,4.416127737039506
-2.4997655483351346,-0.0,2.197917628390147
2.3139295902730037,-0.0,2.8226557949377495
3.8179279620926456,0.0,5.589645948017442
3.670004910732586,0.0,8.190755891105375
-2.1039778662731523,0.0,6.568104147077115
3.7147942996697756,-0.0,7.914355031937156
1.8650771367008645,0.0,5.768213685307807
-1.734407271823074,-0.0,2.2640637656785745
2.5815697529823964,-0.0,3.193398813797593
-4.1927971055695,-0.0,8.995419801791742
4.251402116729897,-0.0,8.149028954694142
0.7478014657977861,0.0,7.764975147702709
-2.661324274385044,0.0,4.915937998517771
0.8712612620861904,0.0,4.475343186553701
4.472793848236046,-0.0,3.891977307051736
-3.0534187182374395,-0.0,9.746648792011817
1.7688518987046198,0.0,4.730512231366678
1.8028247583375845,-0.0,8.193852165701239
-3.3532556293660045,0.0,5.115534365649854
-2.1618398146263837,0.0,4.535638288605823
-3.5159048077388855,-0.0,9.933508359438633
-2.274648848461288,0.0,5.115817111052664
2.588458399358772,0.0,6.1863563000955235
1.480894358890641,-0.0,1.5299873136011244
2.2117325305586744,0.0,8.582201130878426
-3.355619175545863,-0.0,5.598471677256841
0.7676487744992422,0.0,0.42158312792926145
-4.207844885398765,0.0,0.03519834749570072
0.5516682547689788,0.0,5.783624648398654
-0.43901078472381116,-0.0,3.1092947812078475
-4.666791825225955,0.0,6.898258535810861
-4.536295294889765,-0.0,6.551971677514637
3.5417765987434535,-0.0,9.761950322124045
2.1726034161732866,-0.0,1.160275661132818
0.016223664609883448,-0.0,9.842221684178675
-0.2080734059866718,0.0,9.152525769692993
2.288715332126814,0.0,1.7449863692956635
3.7643804374875343,-0.0,7.049190660597349
-4.9038923514835115,-0.0,5.410836066565674
-0.30137069759004653,-0.0,0.12413676708957544
-2.5902425296445806,-0.0,7.618777879282685
-0.29615322426769897,-0.0,5.460761724605344
1.9477394210073995,0.0,7.924993349505112
4.097599455436956,0.0,6.089260362819298
-2.5507469599523303,0.0,5.919372553004253
-1.9991717496794426,0.0,3.0730723584440165
-0.47493306868950813,0.0,4.624249058394158
-4.075796597439015,0.0,9.685147994328482
2.8918513234632037,0.0,7.357900780787563
-1.14662286402882,-0.0,1.3934931606408607
2.878191270914158,0.0,4.735940823841412
4.107707952924579,-0.0,0.9480468999265945
-1.9149845060859982,0.0,1.7837643115082302
0.49071662458050946,0.0,3.4921216236646657
2.67904672401471,-0.0,5.292785453426745
4.951788266682469,0.0,0.6512051802075203
2.0745070886227457,-0.0,8.727072084938648
1.5429565682637558,0.0,9.63359721421112
3.7030668621410134,0.0,8.797624818025252
-3.741917204592072,0.0,0.2084937733752501
4.607938316605398,-0.0,1.039186656458747
-4.189005254369281,-0.0,9.108172164875054
-0.5794983673666365,0.0,1.2108859778349068
2.8064865069148635,0.0,0.6311693732043966
0.8479163036816884,0.0,6.914282588138599
0.2823725034580815,0.0,0.11745780371338665
1.6655687153917054,-0.0,5.356774078635941
3.579180921149515,0.0,5.4948803291060235
4.6910594133184365,0.0,1.4535210212586136
-1.8785310861331317,-0.0,8.393764455117264
-3.3858549189320755,-0.0,5.696061064237297
-4.358382495464498,-0.0,9.231785525677134
-4.807827797085807,-0.0,7.0339927377509905
-4.721329343404293,0.0,9.882228652185296
3.7428842991119957,-0.0,6.750269133685407
-3.4245029850423423,0.0,0.866622187496503
3.6256884723475,0.0,3.872056053433388
3.228018166843898,-0.0,7.828537367352963
1.6595381986679603,0.0,2.7662300733931855
1.9713495390743507,-0.0,4.334370133150108
-4.563628672463232,-0.0,8.62444163691261
0.9292210390157762,-0.0,3.196034632267634
-2.9619081037079398,0.0,3.055936658065228
2.32471146527733,-0.0,7.387270217824272
-2.1777615007253734,-0.0,2.2319538040884854
0.9118507360036632,0.0,0.051596316773765416
0.5563998800681069,-0.0,7.941827964234537
3.5774113663237594,-0.0,4.310219546023365
1.566070519055004,-0.0,6.928988432775448
3.4712421386246595,0.0,8.024987521429024
-1.4547940415445437,-0.0,3.5567835969385286
-2.631957562728955,0.0,6.32170003531083
1.0362643664163396,-0.0,4.557530495649478
-2.799918305450114,-0.0,6.334758552804064
1.3829493566743056,0.0,3.5191847704253076
4.07269580871776,0.0,5.318686414082671
-0.28269938491849333,0.0,6.079453865378285
0.33633481569644186,-0.0,0.8325826620417365
4.850772119389716,0.0,2.407718878375864
4.556138983697263,-0.0,5.9654718427575295
-1.9724547014126337,0.0,9.113731235341424
-2.5849893924969614,0.0,7.700522567078647
1.878449482399358,-0.0,7.992116990143611
-4.071118986806281,-0.0,9.217990511779014
1.0834532347970938,-0.0,2.5983126861216754
-0.1582543426045946,0.0,9.700739391458491
1.1609321132890449,-0.0,5.032707028017733
-4.302576682087769,-0.0,6.196935992489028
-4.458462416533928,-0.0,6.706208772498082
0.5072369117823572,0.0,9.577540838715938
3.890453328120155,-0.0,0.9500484872307291
2.0506417302773294,-0.0,4.084358113080556
-0.9331962014258177,0.0,6.126557512332386
0.48725850791061287,-0.0,6.714005154952937
4.939940752672647,-0.0,8.375026107169612
-1.0509648669547955,0.0,7.483000970054661
-0.758896308563678,-0.0,8.967586951575907
4.2289901349282495,0.0,9.2225021978239
1.9945117570739923,0.0,8.514813055043591
1.3039144245307643,-0.0,8.79381643682316
0.4861952933364644,0.0,1.6938815583527944
-0.7417448001011406,-0.0,9.818373259125295
1.3163623481572662,-0.0,3.185223780819907
2.7694845676133406,0.0,1.1752288675547518
2.1360284183026046,0.0,1.7112517808656413
1.621375065742554,-0.0,9.464303640172684
4.846205868008092,-0.0,0.6441124721513158
2.9990450475361374,0.0,5.701473477542724
0.741526000746342,0.0,8.85296545620605
-4.321457248264005,0.0,8.68650152425394
-2.1470009888201824,-0.0,1.3630007920827625
-4.70942235439383,-0.0,9.759649143897956
-3.7615212992809512,-0.0,0.27277473611543424
-1.4172340917655035,0.0,2.216423655071008
2.109068770239139,-0.0,3.448579947312058
1.5328497870856927,0.0,3.359333264703366
-4.014293777253117,-0.0,0.9993234566525289
0.7256649204167298,0.0,8.750144270365857
1.4382342775310941,0.0,1.802430819140446
-0.5974377127391917,-0.0,2.9473168340535985
-3.664282739490522,0.0,0.2918260476746437
4.476108996859809,-0.0,1.2952293060353737
-3.4314205872087045,-0.0,4.95377740453399
-3.177284361332653,-0.0,8.697079981382634
3.2595921040919507,0.0,0.46416268769260416
2.3794186219834934,0.0,2.709098747246456
-0.9096998122712963,-0.0,0.482649855052778
-1.9127609799379497,0.0,6.110622271150196
0.549988477271327,0.0,0.106685394018452
2.829364357712282,-0.0,0.3581655230365499
1.2144819521683003,-0.0,1.1102555570426875
-4.4039765346922355,0.0,6.739354445309743
-4.604104940806126,-0.0,5.583311537286901
-1.1640767239937566,-0.0,9.914642421413076
1.3836064662854974,0.0,3.9582090453105288
2.780802505195968,-0.0,6.517653630436197
-0.7410299138314846,0.0,6.780739363980503
-0.7440951922137684,0.0,1.7217242515066233
-3.624860627768002,-0.0,7.73190151193616
-0.7197802110406604,-0.0,6.893643170171652
3.1233040289388048,0.0,6.5970262556157415
-3.6815089099392493,0.0,9.536122906414006
2.585530006103993,0.0,5.516551319422325
3.6022786871419434,-0.0,6.231927873551251
-4.07076226224519,-0.0,3.5764879079853196
-3.728016573473032,-0.0,8.439054400247153
4.235994859727979,-0.0,4.636172466465106
-3.87496703078451,0.0,0.0937572600044545
-2.597336287617625,-0.0,3.884740981128333
0.5200661326915124,-0.0,5.675524018943862
2.7213330682770986,0.0,4.857724298553048
-2.078110043050334,-0.0,1.102675572579932
-4.604406672786362,0.0,3.4533421059530944
-2.1312706387244527,-0.0,7.990980413764883
2.1229852638263425,-0.0,6.120432567501507
1.1794768605012695,0.0,0.41274412232358837
3.184296927753807,-0.0,3.0425238061962467
-3.718894858359416,0.0,0.5372284190091914
-0.9008764580988804,-0.0,5.486342557026199
2.113274863352652,0.0,3.261729931494699
1.8705577524734462,0.0,3.1237416212792226
-2.8866745631556787,-0.0,4.754258174533569
2.296899367951143,0.0,2.016497836520341
2.770707599961729,0.0,0.8329062901543538
1.577266851079946,-0.0,4.916625083227255
1.4600790398376973,-0.0,3.631279410385766
3.1773126019915887,0.0,9.975605580450026
-4.007878684597098,0.0,0.11040888152080153
-0.3644649228202512,-0.0,5.006235522652101
-1.4699132741996646,0.0,9.02609506606613
-1.904224788042852,0.0,8.060444709859539
1.9940439704656476,-0.0,1.109962503452252
0.6742581237768674,-0.0,9.78757109759965
3.459372327670891,-0.0,2.192780021178813
3.4598469329158252,0.0,0.0029276948459089347
-0.5857670120443814,-0.0,7.891990582153669
-2.2500183866720844,-0.0,8.492313116913381
-4.541677923115051,0.0,7.67770763851718
3.9672089513934017,-0.0,2.643027530619484
-4.263891225535641,0.0,4.054595430642459
0.1753376669348361,0.0,0.16103196746465542
-1.3368779769263872,-0.0,1.136537238549875
-0.7657775843689829,-0.0,6.998166580142504
-1.9302038235867203,-0.0,8.647340281299376
3.208264172480452,0.0,8.496056004019726
4.466725386373475,0.0,0.7058701048508165
3.1330627177790724,0.0,8.402287710615155
-3.1832255726040826,-0.0,7.942191672561537
2.925474848764326,0.0,2.2489652097369204
2.250607810967379,-0.0,6.197393420571748
-0.37355888498123546,-0.0,3.4674366605955607
4.98871424357195,-0.0,2.362349164592251
-2.995537739465488,-0.0,4.519556265644846
4.65889271662266,0.0,6.656434243180385
3.367677925417729,-0.0,4.309247692837323
-0.4387821080169074,0.0,5.306808557787073
-3.9280894116428735,-0.0,8.152464120042456
2.5077939880154565,-0.0,0.9849140362109066
1.7113435741129657,-0.0,3.121868078109624
-0.41137736254796,-0.0,4.564997222426523
-0.5737542526760131,0.0,9.961406297808562
2.1551786457772124,0.0,0.6283509413911126
-2.8653905698079374,0.0,2.5775505844278914
2.4735859682160024,0.0,9.27248000774788
-0.552740479374163,0.0,6.395772002263459
0.18694899902078732,-0.0,9.0009331049764
0.14517802635902854,0.0,4.483996958866438
1.7678465184557879,0.0,8.874161878125276
2.8399507856052972,-0.0,9.049017396879709
0.9050215975362064,-0.0,3.435505070304913
3.250175553696751,0.0,3.6377179487869418
0.468643769513456,-0.0,2.868403293582835
0.9470673649026329,-0.0,1.686707207974284
1.8455247518619422,0.0,6.743347176800809
-4.429408432821818,-0.0,3.5936944605132792
1.7633880876265706,0.0,0.27982587385336877
-2.3002641692719115,-0.0,3.1991231697091616
1.0479038385565098,0.0,2.0110732621883987
1.5133834226294784,-0.0,9.016192640323045
4.179669648529092,-0.0,3.266505351401995
-2.210471515857393,0.0,2.5400356912346322
-3.0869752506922232,0.0,2.722265198190583
-4.9063602619430435,-0.0,9.218739620262255
-4.8622028367755865,-0.0,3.897606465749094
4.481766252681555,0.0,4.312602577376213
4.577287922949892,0.0,9.884730655844292
0.7604214706554224,0.0,3.0789946610766616
4.367127072413507,0.0,3.7618153570143464
-2.1423295195203105,0.0,8.0398495872762
2.693380384164863,0.0,2.511199377307922
-4.84620300344722,-0.0,3.385583547293296
-2.325425266525336,0.0,5.1531075526692
4.713192497000173,-0.0,4.154575590077928
2.291033561563741,-0.0,4.902977457894887
3.792390560172273,-0.0,2.0876767020430007
-2.281264000406531,-0.0,1.3868114718990876
1.5577349328129475,-0.0,5.650819355868608
3.522955038850565,0.0,1.7342448424851153
1.2827583380063867,0.0,1.234139636654391
2.6959273622957216,-0.0,5.216068360029503
-3.235598893492828,0.0,2.5914643555205297
-2.0922298077029478,0.0,3.2604575151992474
2.3121367054151207,0.0,5.844459791741565
2.024717022689172,0.0,4.318102986070383
3.4715344205469156,0.0,9.072509889754642
0.018432813965912898,-0.0,6.71211695401877
-2.058649905097555,-0.0,9.949674124295301
2.774874012024322,0.0,6.647394213482127
0.7971187413257197,0.0,6.417048875367115
3.9105531480281632,0.0,8.271105164924053
4.029237761736606,0.0,5.912708570699237
3.6424324454027666,-0.0,4.390894963413005
1.4176024147337896,-0.0,8.465708566792765
3.4454940320055574,-0.0,2.1817347138534746
1.238109527729041,-0.0,2.166884600915482
-0.19733826824791745,0.0,4.976074831919599
2.1290935314915527,0.0,1.044164866695122
2.7377427957624736,0.0,3.5468431357804473
1.34658681585195,-0.0,0.5057958787000039
-0.032820236607030706,0.0,3.479936402863013
4.898398144446152,-0.0,3.786609823277476
-2.756126266434494,0.0,2.127422803956792
3.6613089901011255,-0.0,7.311393956290395
-3.861846247089206,-0.0,8.71747126170055
4.072884310268985,-0.0,7.227891892145352
4.632451098494981,0.0,3.630445488363079
-1.2699241901274183,0.0,1.285116382132293
-0.2782047256330633,-0.0,7.494889379581682
2.790493161012914,0.0,8.515583534288128
4.276199297131723,0.0,9.414516612889607
1.5381818693629157,0.0,4.961765373105499
3.0518796086253817,-0.0,6.687834684023168
