-7.0856823076911235,7.056423048150742,1.8099699214029075
-7.224949742832516,6.9137617266972935,4.261354578579059
4.117396612578182,9.113015150581596,7.0119796940393755
-9.21832309988535,3.8758894754778757,6.349686264033475
9.30384110267128,-3.6658615271508097,8.194527859922827
-9.033154734787948,-4.289768704414969,5.909646584987401
9.399273688070398,3.4137448845435845,9.986796483390606
7.2299292135767566,-6.90855437603768,6.6684983717391315
-7.105481795571396,7.036485518552817,7.590528009889232
-6.627494062943002,7.488412545102951,1.1894094305411795
-0.43035186531910175,-9.990735572119622,9.555340700706614
0.39929688466291524,-9.992024919799714,8.83258426758911
-2.7424621454967433,9.616595103284602,7.3758467453896674
-9.780692905617004,2.082797706454759,5.0436895334101
-9.799737408988129,1.9912676150830741,9.212944468205036
-0.13704782815607733,9.999060850539799,0.009426846244691145
5.811296062343025,8.138110227552614,8.648949148850935
3.2461881779619133,9.458449255203535,9.626528014763059
-1.5028904067528426,9.886421011938054,2.951842398233807
8.565688818957769,5.160327030022598,7.70716673485526
-6.175017053735181,7.865695416559154,8.133428499155254
6.904103167520179,7.234179943313398,8.478266338843712
8.70810053867574,-4.916196193025181,4.4547649494362975
5.802717562050821,-8.144229177464677,7.195037259471252
-9.486739778892177,3.162557251273851,3.612267241608529
-1.742166327746917,-9.847073498581434,0.7412529057555339
-8.79116980097583,-4.766060588201812,4.470288479076528
-5.949197255887752,8.037851206046156,6.260749207569843
-9.826971960668814,-1.852193857086494,7.088913873459488
-2.947573808041378,9.55572125201172,5.769171538956222
-9.092891723222552,-4.161648724934722,1.6370264921644073
9.310778717209885,-3.64820499412402,0.7387121677372821
1.796419924577782,-9.837320542433288,8.728175910311803
9.961675371406521,0.8746563866529128,8.772795481338314
-7.178724935034342,6.961746067411263,4.940686079418625
-9.9387645248429,1.1049704610188842,3.3653493047063
-8.70737315250463,-4.9174843958106855,8.499653424676566
8.75188397463628,-4.837822536483191,6.61662183053215
-9.483085761874214,3.173497192836095,7.741654089884698
8.753964732770202,-4.834056418518047,5.859416634956899
7.87930616037176,-6.157640329795791,9.710591037971307
-4.057245835639201,9.139953841742766,1.1513521346861044
0.451025365000062,-9.989823628079055,4.712020728301896
-1.316200155597279,9.913002428649238,8.77708733382921
-2.5227808765055926,9.676547765041915,4.105188308053632
9.830761286513924,-1.831975034649519,5.56309418118405
9.924711495006793,1.2247864062276415,8.68057128232776
-2.4947854510954888,9.68380325868934,0.5724056929400068
-9.076530359988883,4.1972129591194305,7.882588374422831
9.13785604973593,4.061968342356258,7.2820949134210124
5.576380724943428,-8.300842006114767,6.679240785162014
-8.345507982668193,5.509309985036372,8.283264414880879
-2.346926470436119,9.720696278681185,6.937714219151891
6.832333945789488,7.302000606218315,3.678865824898303
8.348562449733508,5.504680283440595,1.3873576243488928
7.768369784116488,6.297017619256433,8.751003056929283
7.447026863774726,6.673963656644945,2.093483783806481
-4.142707459850633,9.10153695274034,1.3733265258241323
-1.9376096675348982,-9.810487693090252,6.034763101002982
-0.09236833605825315,9.999573395425118,2.5530670901850105
3.655111992123884,-9.308069419865333,3.411456853091596
8.815827582092538,4.7202949105767145,8.05571245003848
-6.9462218242555736,7.193747449572828,7.1517923910644585
9.904164089183858,1.3811349298750264,6.341094289156151
-9.961777743622955,0.873489660304205,5.106690171500288
4.036469471649235,-9.149148277541672,8.482501227093413
-8.746354829994191,-4.847811587493608,4.754187572498263
-9.750792322740002,-2.2185691512311823,1.7266851472845168
9.90938600036321,1.3431563929065158,1.5792501237204803
-4.268969501298605,-9.043002786518555,6.709063519713117
7.541654687877781,6.56684433870722,2.2808084369511383
0.7514737993535897,9.971724380912516,3.3471092705239034
-9.94082337463806,-1.0862921495848146,8.674615107675017
-0.5779639226236367,9.983283913830434,0.9042606722578883
7.981722096274803,-6.0242935169062415,0.9278971055097285
0.25948288148109805,9.996632864830952,6.114488647717399
-1.9439972554609102,9.809223958640176,7.320917237331823
-8.669616250752775,-4.983748996958356,0.9389385124487715
7.578060262681939,6.524799050941028,6.553548669310532
6.322399013481669,7.747726809479412,8.018042257195816
-7.0752748729944095,-7.066858246177997,7.049849792408022
9.924982759503399,-1.222586284709712,5.1541805393122235
2.037404906990145,-9.790249294322003,8.128258139458902
3.3410180504376013,-9.42536993367635,0.026582779515204047
-9.330997376966364,-3.5961768520258897,4.81649905598624
-6.577169028092893,7.532652094441611,1.081682191977551
6.974062299716036,7.166760428511579,4.605099720639382
8.995200526012221,4.368794741897298,5.354348517144391
8.28634332167276,-5.597902674696055,8.174361139926438
-9.743358431699015,-2.250992330382248,2.257439527881834
3.4552590557576623,-9.384092116854175,5.633684604301302
8.452215664865367,-5.344160397537154,8.027270822850813
-8.500578804101204,-5.266892821699084,7.925630796494464
8.292669753694446,5.588526492391469,7.081976809797103
9.978166703185806,-0.6604462456809929,7.8666832979024885
-8.008488828813435,5.988664849427659,4.284633425233918
8.284506812646894,-5.600620222011774,1.3893158530601124
1.8561307079860372,9.826229123874084,5.529362417990593
-8.910881892904744,-4.538301873025018,4.526669314094038
6.911564668006785,-7.227051531569444,4.62317637923846
-1.135355043176078,-9.935339396615229,8.463224635332121
9.583839755894237,2.8548232052687768,8.040350119510798
2.95212023042698,-9.554317670305073,9.485637291426421
4.329323876210354,9.014263961903653,4.500895982734884
8.738309919122676,4.862297785755441,7.2879292466542
-8.842081056717253,-4.670931661504149,4.46462253681135
-5.29885375557908,-8.48069271209525,0.3422653001849474
9.647678978564372,-2.631024577339996,0.04194337006430238
2.8502672424852644,9.585195702040487,5.3860846674209375
-4.352388302993845,-9.003150340850826,3.21080255004617
8.217294944910224,-5.698777394174376,2.966814080745185
5.54906173738047,-8.319129391633481,7.733153746136548
-6.790691672161625,7.340742919734674,5.683784406240656
-9.99910488798876,0.13379625928731526,3.684128538051401
2.6047192061807225,-9.654814232130688,4.9668114877740885
2.325556571613351,9.725830896752521,2.051365558899522
2.2502343619409784,9.743533512865858,0.3784200079113442
7.425643462085762,6.697747320852212,0.7492293449997867
-4.201993607020358,-9.074318141136558,3.8194279941325284
-2.144962326123803,-9.767248160024888,1.7167645367578144
-6.392602731232752,7.689904441580245,2.6148681720917377
-0.637589779239953,-9.979653264187526,9.858912452606072
-9.678768459307928,2.5142476232674493,1.88820583587741
4.229010547645441,9.06175864763036,5.175289522049953
-6.260594302655588,-7.79775345708983,6.633701456510902
9.993333171557076,-0.36509193671868023,3.727036201041619
-0.47117457547682434,-9.988893558318871,2.098356122219797
-9.636727403205766,2.6708584680403895,7.0008114538657775
-0.23141206241207204,9.99732206430153,0.158774940902916
5.885175725022184,8.08484425858715,3.812138191302447
8.355679245846462,5.493871525666643,2.824446142232696
2.515620096794278,9.678411828838694,9.208910264534921
9.74186866527563,-2.2574310418085424,7.3640150553378945
-8.64071471472083,5.033691410764762,6.047168954117091
2.5363532167093816,9.672999139878385,7.7734552457432695
-6.69579620802752,7.427402852987326,1.3824569240200701
9.986937927645904,-0.5109509069839692,0.5257230826029635
7.022819364820341,7.11898926597761,6.395110369930762
8.462864663798266,-5.327280890119712,5.179637410384146
7.669616017880343,6.41692996208259,6.539575037113416
5.23359566435224,8.5211194347969,3.3649718680018967
5.665462327243787,8.240299546653715,3.706828664529641
2.72246097921312,-9.62227656101517,6.43887316549614
-2.665728202144523,9.638147807140712,1.9060927379868287
1.761185439533393,9.843689646041039,8.419143454383706
-9.995707159114799,0.29298189230935423,8.201200969040956
3.1193010196883013,9.501050528682159,6.5075684350847665
-9.92527184383966,-1.2202372006637447,7.461383651597427
2.4172367089656803,9.703451277397582,4.8486348278540685
-3.5481186557794637,9.349377198750178,2.4028670725871013
6.9755126048091585,7.1653488331098405,0.10425110927194225
7.565274482372856,-6.539619408372181,3.2431449760727125
6.6398719081494715,7.477439471060095,4.780486284723878
-1.5694260256972872,9.876077255158751,3.0066666649142326
-5.894325243915745,8.078176150526652,9.018026824740794
8.663807148323988,-4.993840776061064,7.698317197759749
0.8250495983188217,9.965906539814325,8.139006007423793
-6.98303046427342,7.158022459801963,1.047662550406565
7.0330764657091285,-7.1088561265148975,7.552271356082169
2.3645935446627315,-9.716413812129419,4.894113833076715
-9.194230552425905,3.932699397212814,5.145353260300027
1.6168997678556414,9.868416040110407,2.381984175824796
6.921834878705399,7.217215662008266,2.3625638311627464
-4.955414983209488,8.685842638695622,7.517226231089511
8.531352115128042,-5.216898608148358,0.4112702473633645
9.77916116357376,2.089977735970105,4.729200691032172
6.147529320174673,-7.887197427324406,3.158680291378383
-7.23228882458503,-6.906084155133245,9.45050629227954
-9.929811350015594,1.1827284359063455,1.8713339368847681
-2.39484520064841,-9.709001826394477,7.2700581985901795
8.465926507678018,5.322413772584267,3.883561435392251
6.934177873905805,7.205357535406218,4.305015386368831
1.5337760486683396,-9.881676529442325,6.4271738411166845
9.955358066663253,0.9438462610631498,6.711568102238533
3.1105829503734705,-9.503908338617638,3.5289824719329377
-5.961338242749498,8.028850873912925,4.48143303276496
5.3184938794052785,8.468389625821937,4.659547484547717
3.543040995707921,9.351302609943335,6.051527473374712
9.998676893777358,0.1626664496531825,2.822714787570125
-2.8899212997961117,9.573314727981357,6.789510365892879
-1.527926338614661,9.882582714238602,6.781066955423125
0.7407671497220474,-9.972525458974404,2.2063272919176438
8.445554871964289,-5.354680467090477,9.829273503921304
-0.6966651507863149,-9.975703367065396,3.1243291869362166
-7.953598436121362,-6.061375414617364,5.688210714107501
8.403245936551466,-5.420835519533061,1.8570014301741233
6.543663063533635,-7.561777152954563,0.0025199056372959827
-9.615973674271158,2.7446402853058975,6.923845638120656
-8.851966923326364,-4.65216955713525,2.051816626719921
6.381234339817629,-7.699340770503165,3.7675197848200415
4.1267433673267115,-9.10878637252104,3.163314721680085
9.901107911078093,-1.4028763784406637,2.126564338125767
9.974119767035578,-0.7189818306676022,2.768348760701842
-6.414878519518881,-7.671331929972477,9.602885683955165
5.134624784487281,8.581120458455816,2.6270023287956934
-9.619554151116622,2.7320647748058544,3.983485885017849
-1.274714273576119,9.918422431049269,9.692973675711004
-9.036276024558857,-4.283189886986424,6.656455784035834
-5.2800442115626485,8.492416212359341,7.987770346341591
8.001933915528795,-5.997420579841806,0.5226077379116822
9.849994774451606,-1.7255732216501505,0.5832497445230567
-6.091023209870161,7.930916482779465,8.8316632663121
-7.3699122579777665,6.7590231032087065,6.13061190594825
-7.352259609495034,6.77822090482362,6.6771779940274145
2.6490476731277406,9.642745792848451,9.043624039863722
6.757196136221719,7.371587371565928,3.3914876625620005
-9.983459757195005,-0.5749184954998645,5.031781265210762
4.056708419697025,9.140192382962148,4.0101167799372455
9.604726247159146,2.7837445495469195,6.964547920355325
-7.311839251952618,6.821803775659703,2.505492832567101
8.368995353328454,-5.473565271006343,9.24655827193955
8.657682701796531,-5.004451042323534,8.079724305552135
-2.452973253717952,9.69447895539231,1.794096221998125
-7.225193822075758,-6.913506652447678,4.9848749801678665
7.983380697349656,6.022095369652073,1.384555497223402
-1.5242888901180887,-9.88314440749818,2.267984457484995
-8.70174570517036,4.927435609173313,4.819603047358934
-2.1174639878440757,9.773246454489085,7.893861703900598
-6.515428212316955,-7.58611858661228,3.2758784653266613
-5.898024252474476,-8.075475832248085,0.22188191060593998
5.566956001945479,-8.307165634101874,5.923216007917906
9.70065551789777,-2.42843211210022,7.262884988686443
0.8550897196452847,-9.963374005393803,7.938195655502575
1.098175946377119,9.939517573343222,4.910776754917735
8.994194812309292,-4.3708648661596285,2.1450110953940316
-9.992295759928533,0.39246075741945285,1.537601447173701
-4.549368593387625,-8.905236964926779,9.986680126271594
0.22902220624273067,9.997377097471501,5.205577073945116
2.38437964359843,9.711577303156961,4.9442122688030015
1.0913905259182302,-9.94026492201973,1.3055673258462697
7.123271237761138,7.018476107623713,2.6045965942982505
-5.815226617834048,8.135302046220188,1.4884609214408462
9.999167459507097,0.1290353313413953,4.288155578321701
5.109391850741535,8.596168618377376,8.664659698699484
-6.83298449076435,-7.301391850118294,4.138806771729605
-9.248902729498825,-3.802341160425928,5.208178966934228
1.7808107605208265,-9.840158181412189,1.7777816739417718
-9.966661041500686,0.815884602031723,1.7492824371410265
6.732794207073244,-7.393881400536593,0.6978428643974388
-7.609326278625841,-6.488308992751056,4.855274319005258
5.648108190706215,-8.252204182282293,8.333812625330946
9.990603529960202,-0.4334063995221421,3.6766232690617793
-0.7299160628650846,-9.973325550746427,5.057711612119771
-8.189021046089076,-5.739332217837731,3.3024083387396397
1.522534310878688,9.883414858853046,9.30502085965205
9.557309004497425,2.9424215524891135,1.1223877933892712
-5.854188557105612,-8.10731005561362,8.36750201980146
2.151642522370821,-9.76577874293319,3.236615672008246
9.987856864710128,0.49266139493853767,2.7824024376152225
-9.678128668932223,-2.51670925368669,5.81214793087793
-9.779311106038683,2.089276020852309,0.8929228322509652
6.811677170287844,-7.321274078176515,8.31150068521826
7.865854431101813,6.174814496704818,4.912374922697065
9.970286719906712,0.7703133926213714,8.648848022829727
0.5808678646924632,-9.983115371654662,5.641917004210972
9.124767375929515,-4.091285902399439,4.122928940484685
-4.238421425577696,-9.057360753508934,0.7926214968626011
-9.944154380983997,-1.0553642248800992,0.93435086080629
-8.948725405733734,4.463217854057273,4.032803676828022
-4.456586856063932,-8.952029579618143,9.685416213954218
9.207548693196774,3.901416032982175,4.160021320823542
-2.976770468820131,-9.546666306934604,0.4805008616179385
-8.779062960341118,-4.788324711041081,0.548533869653619
3.783414971066253,-9.256660907514748,8.763121451699929
-7.64802352938084,-6.442649772728379,1.5797885552648794
2.127257018492889,9.77111956621516,8.946480446777487
2.9848381483533952,9.544146961784184,0.39324557822544404
1.561204835001838,-9.877380192296279,6.339817061786139
-3.1932640204633973,-9.476447904970192,9.973162957334011
-1.4793327606197115,9.889973436938911,5.783261174035949
-8.343075869070686,-5.5129923855316925,2.5380001772469116
-9.902036122499066,1.3963096464336515,8.165027954190597
2.04708319055737,-9.78823019809697,4.093748879209245
9.149103217020668,4.036571605248948,2.5700275251648295
4.603188845442617,8.877536395486795,8.520726427514308
-5.587530936563166,-8.293340583441003,5.114857918010623
4.801927628744379,8.771629896906354,9.777848184250397
3.4332525536174456,-9.392165719528126,6.968026064849516
1.021878551174579,9.947651191444608,2.195514277910038
9.984753811295489,-0.5519885214569291,4.510623583118805
8.67267022767765,4.978432596907758,2.0488874929182685
8.248619020740207,-5.653342750150823,8.974283029139178
-9.700194088115756,-2.4302746044190444,7.063083576330701
-9.41391819698815,3.3731504829188097,7.0235281111105206
-4.225590706432346,9.063353859455814,8.416863140874186
9.970483954568792,-0.7677562840421891,8.315843962442063
1.589967764420663,9.872791019164902,6.761363236244312
2.0942435413681544,9.778248513381001,2.7390627651224984
-9.99999980969822,0.001950906340953257,1.1736039009969623
-9.259459815199262,3.7765598010239474,8.339020395072728
-2.87724215203329,9.577133057369666,9.533506016095743
-9.287634361633524,-3.7067300906060368,1.354389267085887
6.410207749563454,-7.675235280265787,6.432859202960476
5.230548351295809,8.522990317063412,5.200211805717699
-5.902917275426059,8.071899877939307,8.22824299330174
9.780431982709691,-2.0840226082241498,4.377446727523232
-9.850925199075107,1.7202536796144567,0.4518819943939667
-7.335437863871595,6.796421951680083,4.692501715923591
-1.8121780095971012,9.834429869673823,9.754991720266982
9.21636901833436,3.8805337413668446,0.2793431600205909
8.736784634647178,-4.865037949265449,4.1242318607797674
1.6374501021986023,-9.865026972229208,7.723907667891985
-6.731888438645644,-7.394706082707351,1.3508196289789132
-2.078887364061913,9.78152479563098,2.2962765175871356
8.793373926552531,-4.761992753861152,2.1471763994322055
-9.999999166750003,-0.00408227868332223,4.936406867191691
0.3506310528888843,-9.99385100272913,0.9883922194121186
-8.286477802702885,-5.597703602845757,5.9655748240974855
6.768201313281276,-7.36148429210425,1.3519413305413874
9.649384057122683,-2.624764240488388,9.834501874978812
-7.515463189970624,6.596803244011191,5.684636671079417
-9.9039615487066,1.3825865765807046,4.362137049882446
6.026082596149752,7.980371454035273,1.5270590199587897
-9.34567673030189,3.5578541921632736,2.5311243946203743
-3.3629444221140643,9.417568943935155,5.882900094673046
-0.37618936445222306,9.992921572897139,5.279577179168628
5.030587961005254,-8.642521898531065,3.8589226402951384
-7.614474758554915,-6.482266127777389,5.847481306671325
9.956187466073125,0.9350567578539943,8.552228989771494
8.520019328744025,-5.2353863885895,2.7218408425356544
-6.825316960280254,7.3085599396673695,3.57524768811208
9.812783471077495,-1.9259492593908922,4.7672021897255235
-7.574012834756159,6.529496885591492,4.391069861963164
9.650552642031727,2.6204644060499023,0.09390315378571268
7.850979754779001,6.193715919385571,1.7079291500434712
-7.112214199913382,7.029680588373163,9.923318976424637
-7.357867227640403,6.772133331559216,9.412909309641737
-3.4690212338521027,9.379013363839675,8.990792616763802
9.238358718760104,3.8278882146046476,6.82430406616358
7.000571478942403,-7.140868222297493,5.34306039791452
8.579175209831956,5.137874338576686,7.627197211407626
8.633536336590454,5.045993492343434,9.313447842566019
0.19674643423703086,-9.998064354694613,4.12834465265934
8.895037779743252,4.569278159287332,2.1445104394360093
-3.957689403415408,9.183501216099085,1.554925525919112
-4.564297297511822,8.897594628882926,2.5307273196642655
-2.6246301859740537,-9.649420520781224,7.604187844918139
-6.3897209269932524,7.692299167033514,0.31421837625315585
-6.960653991885312,-7.179783841123008,5.32516787153112
-7.662724732546419,-6.425157560186475,3.3378101297551344
6.208784823700439,-7.8390682490323496,4.570064174015144
8.831593717361674,4.690730477383859,7.362154983208798
-0.006994331239244785,9.999997553966226,1.0447490916580804
-0.8415383342221243,9.964527747567098,9.71188401854852
-7.17286981949211,-6.967778595264004,9.322835483940864
2.2737686308860967,9.738068402573395,7.1262981470893525
9.381538386704854,3.4621868087645535,4.786654474644157
5.542160054091283,-8.323728847988438,1.6748702591970421
-3.8908606990560273,9.21201405885495,6.767417929084195
9.210358856347211,-3.894777238470322,5.891014110267745
9.16570855874938,3.9987231232067506,7.049420031571305
-4.789930452957323,-8.778186957215713,6.885498759903406
1.7995524601725075,9.8367479861531,7.241790536573662
-5.028762237526058,8.643584346695064,5.032769441130612
-4.1064978445178095,-9.11793153368518,0.180020554607202
-0.8052974534985212,-9.967522059739261,9.782464395787716
-7.082674469064027,-7.059442071811951,2.457696272624985
-7.050310355333941,-7.091764511986492,4.025664396909613
3.874600798627367,-9.218864824438862,8.451079621178438
-9.962720680743427,-0.8626683241473609,0.4184949896998391
7.8390471904669194,6.2088114116659,9.18528498362204
7.12653309174363,-7.015164010362337,2.457662612948437
-3.285825334661761,-9.444752610317272,4.617170529794592
-0.03494030982318952,-9.99993895855117,5.024179250622389
-7.9590331357810795,-6.054237486549301,2.1186194597042327
7.288733286158447,-6.8464857469541185,8.45279082438105
9.709228580433443,-2.3939257241807597,7.3102668676286955
9.987637561637579,0.49708745444456187,1.985177198578968
-9.378378150722735,-3.4707381436873623,9.767216936771145
-9.377366264468526,-3.4734711661402344,8.455842024052156
9.080462600639457,-4.188698957718032,0.5312230832441267
9.610561575894419,-2.7635314718565747,1.4412049626348922
7.048506882125697,7.093556987339053,1.8456807303356604
-8.722106118283973,4.8913050264109765,5.835388082710705
-5.030763196211691,-8.642419896281478,7.689011028564159
9.449335728377005,-3.272621929343175,5.81540464045184
-9.334719269514464,-3.5865047273571755,9.01349098357419
-8.470206435786121,-5.31559996003907,8.92327252626559
-7.759398184232806,-6.308069420870749,9.480084177891035
8.82810081882557,-4.697300919959387,5.233808692603594
-8.2589892417156,-5.638182039028711,9.37905147017651
9.555438473818823,-2.9484903888368033,7.7122950313110685
0.8386845422780677,-9.964768348463693,8.584294717809463
5.809765021728475,8.139203302062207,6.748692573938699
-9.177163369113767,-3.9723635906845747,6.9870568884736155
-3.445321550258508,9.387745172048733,1.1022417301485188
9.141110894264086,-4.054638284578101,4.402113907423065
-4.202310067171979,9.074171593007542,3.9379291954111317
-5.246361780480711,-8.51326541747121,4.6478438756327325
7.766321884966763,6.299543188127715,2.302355647347137
0.41404004136477823,-9.9914248655608,7.515733095534346
3.036983329172111,-9.527682418003376,1.575337710007424
-2.2230755183095416,-9.749765906927855,5.324703013360665
-1.4276104952463677,-9.897571837267078,2.915299949007969
1.7154773544779558,9.851758089106395,3.519655932192424
9.260441493487848,3.7741520035219263,2.9098857978433825
3.833569301412545,9.23600272906344,5.780382290676531
-5.360129372011219,8.442097672693832,3.5665266323987224
4.522010707150702,-8.919160227533443,9.371784495075776
8.356404677097567,5.492768051955396,5.129769367894163
4.529917142394973,-8.915147260872148,2.442908712908806
4.506104481708746,8.927206864407498,8.517674855238337
-9.805830483085668,-1.961042716767767,7.673560620487784
9.712192872128158,2.3818710323153516,3.2179651200330452
1.7702704216985585,9.842059877589609,7.602150735933952
-7.2035270198553345,6.9360794743294365,4.151506488434384
-3.4699588829138484,-9.378666501741455,7.223196994927299
-0.7862196199001076,9.969045024940158,3.9959655879867215
-9.86745920006091,1.6227288544711662,7.073841206917926
-9.799982657346227,1.990060279416982,2.420431637077005
8.967965423657118,-4.424431733012773,8.07198127029048
6.929926394883703,-7.209446591902471,5.8488025887002095
0.9695890607134907,-9.952883856116514,8.339180723794307
-1.8367366705980628,9.829872756189692,0.974927577907434
5.997484839996904,-8.001885752371582,8.09004864948494
-9.114224890581044,-4.114718051569627,1.1354527700897787
9.681401020268533,-2.5040915088597315,7.494732134342841
-9.873252858544046,-1.5870973477552819,8.997871159997006
-8.272543482051308,-5.618275922164239,6.548897025905772
9.70964295988794,2.3922444673357623,8.433499255863069
-7.701661695819344,6.378432967677022,7.080970393132216
1.0581434244282186,-9.943859034265284,6.496182281482953
-0.07972188905129643,9.999682215970969,4.0960581482915615
7.926219151169347,-6.0971345702416855,9.987285896041959
5.4248555357747925,8.400651309033936,2.29119848707236
8.34670685627807,5.50749350025587,5.582408990918296
9.678747689211407,-2.5143275778197296,4.11105609401459
-9.643090877455018,-2.647791217060708,6.331569686813689
1.8604841163866672,-9.825405785649412,5.176041373954508
-7.666445026499318,6.4207180794412615,0.2526779974216298
-1.831933348990952,9.830769054598669,4.111349839992728
-9.662797602308418,-2.5749451444298135,9.489558157055672
-1.4995577538232838,9.886927052575459,6.518733231165598
-8.1830941150799,5.74777963249677,4.36780215210483
8.364788118885484,5.479992675738924,6.096512746039653
-7.797339814944025,6.261109471195075,7.465909069849193
2.278145389464733,9.73704542376488,4.0049708897384395
-8.10304684273781,-5.860088042375883,3.1446292507736286
9.889412129401512,-1.4830804883236222,1.9847365383271443
-3.2803064130002864,-9.446670833517445,2.0133786785443277
-2.5046469756551497,9.681257331945138,1.5799487732912387
-3.8854528831612067,9.21429627767277,6.433964969781787
8.28985992998301,5.592693657019137,0.3719027042529144
-6.260511738493676,-7.797819744786545,1.0214794799597327
-1.1753316792480981,9.930689575440159,3.3906506288295923
-8.15668259593293,5.785199134792584,1.9407135630041639
9.98012643391048,0.6301399552173194,5.825917137137809
-9.426659819946249,-3.3373769099415442,4.7093620446894215
9.802763430343703,-1.9763170617884644,9.324730747519006
7.755817268123382,6.312471663578313,4.590436149913176
8.898392981294096,4.562740662195909,8.820765864559334
3.0923500236932444,-9.509856535771945,7.650030690925295
-0.7025611287968524,-9.975289863472824,6.691729020992009
3.388830293004767,-9.408285138388038,4.923940271502236
-4.464936733175162,8.947867900720434,5.912883130516199
8.729903570938543,-4.877374666981661,6.727917125267977
9.470343195516001,3.211323677106339,0.9965432696281562
-8.87995464491283,-4.598522100011161,5.6729383389284855
9.670356953349431,-2.5464085286548785,5.698688415523117
8.724541799693702,4.8869592166701565,2.3203397573695304
-4.194620493713311,-9.077728731005367,0.44950272700679306
-7.969370356672973,-6.04062381862851,9.062498565068998
4.846479951286642,8.747092778848103,6.163730210884387
9.838699500427717,1.7888521851409012,2.417141587195377
-9.361542575849267,3.5158954194573906,4.335229747381421
9.804099935715469,1.9696762298672186,2.4334626521363645
8.785921770637447,-4.7757280743609085,9.790360261815472
-8.322839159653723,5.543496037928999,5.40229146398937
-6.481791967469416,7.614878389734727,6.570047890932363
-9.906911852414726,1.3612852561034474,3.76527785646825
0.22791275553626372,9.997402451430265,9.9812858301867
5.2815802745099925,-8.491460993486747,6.9850913427243455
9.98498118096509,-0.5478602155413611,4.038493217496647
4.79349426469226,8.776241378537991,2.814303200597965
-0.02602928542861673,9.999966123757623,6.332349645405375
3.2842223298112265,-9.445310142518842,8.29734912817042
2.392894107200814,9.709482879727613,9.366034630380838
-9.487524308536328,3.16020291989807,2.8184881641174995
2.5113082359670864,9.67953154568773,2.6160641908124935
8.564020285163148,-5.163095636855289,9.159617296991806
-9.796529579948723,2.0069898328565805,6.496694905247371
9.065556343912107,4.220863439552972,8.26088925552545
-8.754019940461617,-4.833956441880748,1.309736602579814
5.05011892297486,-8.631123847090322,3.226343984868719
1.9198445567708375,-9.813979665652328,5.838218719338066
-5.941259201065145,8.04372047660526,2.7718936854569867
-9.551953010933008,2.959762435893776,6.181019516302262
-9.08434021342894,4.180282632391959,0.9262454203293102
-0.479485000926885,-9.988498091999926,4.8359536908123
-6.030452636588647,7.977069699950041,4.430967494075455
-7.676548369812587,6.408635199941383,3.9906541595563305
-0.40513934473746793,-9.991789735144835,7.471159477521248
6.856116525674701,-7.2796748681771675,2.352397482381864
-3.914350339153749,-9.202057455937066,7.204618297531446
-8.763398764315523,-4.816932851679911,4.009622309743292
2.4392260143059126,-9.697947022495704,2.0112755904787316
9.999811020076809,0.06147814856016709,5.016640002471551
-4.489580332528011,-8.935528436403619,0.9963157581212478
-0.7253866861015952,9.973656007484244,3.011913971291875
9.040095169938635,-4.275123310321253,0.781324040582404
8.404364216338093,5.4191015970487,5.120115318207351
8.533537515042779,-5.213323074523344,2.6902366885860896
-8.994399341914278,-4.370443968085165,4.201884823029731
-8.826617201024208,4.700088167958512,3.795741917553218
-9.544897760385803,-2.982436377155779,5.588743065780833
-6.660649102912561,7.458937828395548,5.417120188330756
8.12892995956526,-5.824130640059711,8.321047404905405
-6.065374385799428,-7.950549261534591,4.783256718129777
-8.709166845823471,-4.914306955371147,1.1046956358760673
-9.84587414536757,-1.7489317635580834,0.7411213688005691
-9.34309822718464,-3.5646199681283313,7.5904518708017665
-4.363031912029501,8.997997140175817,9.566733631034449
-9.220555528877322,3.8705756340484863,7.710129852538281
-4.6580430488978815,-8.848877609878787,6.168969090436184
-9.566499029248579,-2.9124038736730857,8.40674282707242
9.990600643309019,0.43347293561814,7.485941144927278
-6.481618937275158,-7.615025669815964,4.149041063336538
-6.89514195056104,-7.24272169019446,0.4483577936259564
-9.367160807566194,-3.50089965654485,5.5772983229371516
8.37900572761902,5.458228926724093,2.7662527781006774
-8.607923415281762,-5.089563289383868,2.064008083311469
-4.5482831946086835,8.905791373125705,9.446749504180126
-5.365570721760867,-8.438640342483057,6.853182679514904
8.255217856805961,5.6437025202141875,9.315023499102022
0.43983824219477413,9.99032243327026,2.8822758968333906
-8.181868731907343,5.749523811050523,2.535551987878911
-7.4157428435297446,6.708707631029793,0.7192083177495279
-5.2692610076101225,-8.49911103784858,0.7396614416199532
8.769398785995394,-4.8060009292739965,7.519516934394355
-5.146835621795468,8.573802136871207,7.732977156015077
4.023891058016228,9.15468736512706,9.47040727537821
-9.654325155946053,2.606531370090765,8.191541503114113
8.736691122750091,-4.86520587700662,5.926815031053082
4.998743497563113,-8.660979358338786,7.951531662781567
-5.247188431918887,-8.512755932125426,8.878352354614202
-4.395862972588524,-8.982003603106891,1.7375414622690244
-9.996984556671606,-0.2455601223110383,8.88678528619274
0.10704328492772686,9.999427070345174,9.574637143897087
-9.79344667167397,-2.021979794428736,2.353279799210041
8.621710970386985,5.066172119372644,7.124271425853829
-0.4848706697492996,9.98823810457164,6.757022797562922
-5.4720846242508925,8.369963552192862,1.6775098695839796
-9.892643318670304,1.4613720161436705,3.4544731539660023
9.560037300163831,2.9335450941610293,1.7810960046399804
9.74185478307423,-2.2574909491499104,5.509944486786082
1.873858050934465,9.8228639410789,5.604160612698797
4.56763783909451,-8.895880202142564,2.646372837686346
9.019983494155513,4.317394789124816,4.643914412020029
1.059593349211148,9.943704638328088,6.702017188710875
8.875762442260552,4.606608412764974,2.780910474810663
-9.93502705053112,-1.1380850166902798,7.8987479927831625
-3.4843697695959595,-9.37332210631459,4.309689746134135
9.990935047983434,0.4256957446067273,5.44386810564089
3.9059311777656918,9.2056342331508,6.343494072289413
9.654271524935254,2.6067300057398226,9.137758659453775
-9.972481278817423,0.7413616820661995,5.4946715514170075
-9.996748900264045,0.25497338110007517,0.2554297056633059
-4.6098303459606775,-8.874089484643484,0.6988603218052547
7.837987877848173,-6.210148631611412,4.209312538000905
-9.939943564805962,1.0943134507409367,7.483278832601997
9.981898687780792,0.6014138233197718,9.26997772168761
-8.354423424198371,-5.495781040871766,0.029826932781906734
6.760315608804811,7.368726678969035,3.9541181140221204
9.902948844874608,-1.389821634526057,7.925935490849242
5.628841796783313,8.2653578281152,9.987284151713302
-4.481894449963458,-8.9393860046083,6.924480900788281
-9.987774462460328,0.49432912823879105,2.407676363346524
-2.2169880335089407,9.751151934990972,9.838924654833663
2.0411831140868,-9.789462267906593,4.248748834688643
9.988254714116367,0.48452839538273723,6.073416716128075
9.915091998479316,1.3003655877065687,2.6042857490723303
6.580401750141487,-7.529828205658802,3.8755758410932084
-8.534479325846458,-5.211781138603133,2.002596028314365
-3.045439261826497,-9.524982924001788,9.301872814920324
8.796557459706667,4.756109424527465,4.5974805630114215
-2.698298603663605,9.629080155729676,8.159309859541304
8.046915383278392,-5.936931262391166,1.7160986391776067
7.554400020258808,-6.55217828923433,0.04518602803972649
5.472990570195762,-8.369371196126282,2.1091347883833755
7.621018153926249,6.474571977940053,3.163085076696831
0.9493548001535673,-9.954834276040229,3.893903821624064
2.6215536638968295,-9.65025680421558,6.914990176633627
8.720069084651708,-4.89493566442926,4.434970048780077
-5.9181214829486395,8.06075915240381,8.183892990325802
9.99937791279999,0.11154083112350482,5.40641658122608
-4.425613455692226,-8.967382312625904,0.5649846668440062
6.810757177714402,-7.3221299268868325,5.784368833590333
6.066758808181315,7.949492912340663,5.618409455072413
9.835057419001194,-1.808769074522667,3.7804799741499706
-7.576718150389823,6.526357488641993,6.733990872318206
6.02990183677387,7.977486060086292,2.0070239900455777
6.006214388097112,7.995335435378258,3.2568854688792195
-3.7097362223777823,9.28643403898279,3.875095389548464
-9.084729830724983,-4.179435835461003,8.804861865394159
-6.121175022807771,7.907668198663515,8.130152099345317
-8.13087912247015,5.821409167527999,9.832313909421192
-9.67569585652219,2.5260462569160023,9.732733883453662
4.326681325602823,-9.015532635772542,0.19790281227510254
9.766326941566719,-2.149152872744988,2.8111551897117906
6.4458372526708505,7.645337279157847,7.777803848993209
-8.582081863586001,5.133017717357715,9.46427232433509
-3.0306988676310676,-9.529683330192025,1.3254820294457081
-1.992307075546082,-9.799526137356287,9.394806905111325
-9.62744524493703,-2.70412611683319,3.8583736215782762
-7.935606331346991,6.084911844380785,3.6264706281306314
-6.991097066185374,-7.150144181145878,2.5749940493071555
-9.86953181181182,-1.6100750962717525,7.838747566016913
-9.261539487636263,3.771456790015526,9.373481151659606
-5.873899411882003,8.093040571941565,7.697693794338002
-6.7220982021846165,-7.4036069425778095,8.196756793617135
-5.725877404148479,8.19843448181797,7.683286736085236
9.314124219680362,-3.639655206247382,8.240558947017757
8.192867209470245,-5.73384050074531,0.7035257023193009
-3.0337498084285612,9.528712510085487,8.391773897551774
-3.0785704991997647,-9.514326233709715,5.199338649914415
-8.70404256848078,4.923377191123435,0.9783899676994312
-6.993862144933992,7.147439562364923,2.2785015973112923
2.1439928602419003,-9.76746101170779,8.998730795105216
0.008573711778244238,9.999996324572642,1.2893352213541975
3.9874990108641004,-9.170597125507031,1.840225659312451
-5.961398753453095,8.028805944991316,6.110751322898864
0.16381408835122097,-9.998658157195777,2.4722736353889863
6.376069354004238,-7.703618603807433,1.369479288788582
-1.1846693435499505,-9.929579978350189,8.612208820479946
-0.6107572095036167,9.98133135563785,8.552878547616947
-7.923905213809688,-6.100141487093529,2.8396871257283998
9.829847272843494,-1.8368730474835049,4.319084394792
6.08103498041038,-7.938577553127848,8.644113574094984
9.772208801824712,-2.1222476607454728,3.2499458897680022
9.083240634955516,-4.182671343470932,9.090561290230758
-9.562032923315378,2.927033715800481,4.59934138206847
-9.873961319329169,1.5826837537522676,7.761534564807466
-5.201520649288659,8.5407366740243,3.236450926839388
-5.766330211553438,8.17003279622096,7.210965858052979
-3.6640081239017785,9.30457115981074,8.536462170887926
9.587359176339135,-2.8429815377286225,5.050608726946714
-6.315450941093953,-7.753391477968561,4.507181842119681
-8.976514346197334,4.407061401037371,0.44338730175466856
-6.192146338710086,7.852217758060411,2.315705338841554
-9.279058143750964,-3.728146988101315,4.88452899501108
-1.5154531649256264,9.884503108650271,8.323232390799603
3.653685759972492,9.30862934955379,3.7847925662874915
-3.917098108412356,-9.200888131537756,7.268686466765937
3.582863932547059,9.336117289368929,3.5632846551670383
-6.756523045960218,-7.372204306000238,2.4081803054273987
4.751033860552598,8.799299816228714,8.024390956689317
9.999993733734268,0.011194877194515734,0.41144950798394087
6.87146804678144,7.265185949585988,5.6369798862196765
-4.523933554480372,8.918185084121465,1.023938628430574
-5.497402467601026,-8.353356577401335,8.308800821684626
-5.225700729490162,-8.525963399276705,8.715502763523467
5.088063368828123,8.608810089367138,2.2704677318102187
8.430135271730586,-5.378923619119709,0.2380676665442416
-7.479487066089573,6.637565308770888,2.176151733477454
4.82559432884203,-8.758632277556105,3.9012860136208682
9.336580991575618,-3.581655397682595,0.20088098398399978
7.381191596042214,6.746703685690946,2.8661992987050953
9.917747771529818,-1.2799527883149895,2.745164130508618
-9.625962654626573,-2.709399005634745,8.056200052280422
6.265728023660802,-7.793628957906047,9.734756782652559
4.075974620364145,-9.131617101814298,7.021037112972178
-6.741415650338802,-7.386021596865735,8.684118762576528
9.878571575830646,1.5536484870107536,6.066760545749946
9.674897832983838,2.5291010105024774,0.8539831934265796
7.086476910978367,7.05562506020342,2.3724396788724667
9.699838247523209,2.431694465159202,0.22412284771510693
-0.22109418027436384,9.997555569410395,7.383263671090407
-5.383839781092295,8.426996452564108,0.6323828340896054
-9.986975768758043,-0.5102107351278519,4.8649982156849205
8.79559749514111,-4.757884477734558,5.366595086159914
-2.2014009070218203,9.754682672776369,9.948409662157099
4.4843090899705444,-8.938174980699783,8.291215776789896
-8.120959723578686,5.8352389126763935,0.7614623053334912
-8.137764429342539,-5.811780285981852,7.573009707425923
5.561288170886895,8.310961068393564,2.531863568976267
-4.203170931386595,9.073772871388547,9.825376493779416
9.86866566145941,1.6153755174360875,4.897272736093555
-8.95643250243591,4.447731649876107,9.077466175592852
9.16701321663026,-3.995731308049397,5.278720258999622
-8.897092759222609,-4.565275504697237,8.499580613847742
5.879177161083656,-8.089207372084877,6.500999415638473
-2.7249867460145754,9.62156157980839,4.475724442834751
-9.564861161839127,-2.9177784279724603,2.536549853663914
9.448241690174324,-3.27577913847253,9.637184631545852
5.563417673058405,-8.309535714773803,2.29212039283333
-2.307887208470287,-9.730038881370373,8.706709228279463
-9.616667105545083,2.742209653022018,7.987498829903505
2.3132346088286355,-9.728768968606328,7.102084102892862
5.526521350812081,-8.334120335045457,0.24234536894941816
-8.550814146710197,5.184937552991432,2.5537372959846403
7.894527451348045,6.1381134169964735,2.830809309128852
-4.620805969242427,-8.86837934431165,3.894254760700334
8.835752903816097,4.682891267444227,2.196290387795339
-8.108201484415092,5.852953842986369,0.9985513537821233
1.9790450939955704,-9.802213041753994,0.3468662875034878
8.843869279826565,4.667544982251371,3.956101894094537
9.921544951528912,1.250178297200508,9.999451295910085
1.613347790951749,9.868997360696328,2.905490004825678
-9.832710203220245,1.8214856736983922,8.474014071548721
-9.864782633437086,-1.6389214731151909,4.777525790216119
2.2346970980170773,-9.747108744654184,2.427759162533032
0.7956836861406579,-9.968294110408742,3.3404161862039605
-5.046080389042534,8.633485547988155,9.291351727747386
-8.590832703293822,-5.118358473575036,5.137038296075777
-0.2956456847887013,9.995628726051494,7.272766837660156
6.827036654567951,-7.306953572945817,5.61712137248033
0.9125579731508571,-9.958274847865908,0.3892208247104323
1.59427168556477,9.872096929862797,0.42840931978600727
-9.95374188377221,-0.960740605594912,0.3017988965816343
3.351289877547758,9.421722568439698,3.352525114569173
-9.949666058479504,-1.00207051884632,0.5131790768782829
-1.628272575879158,9.866545921376936,4.284275682876249
4.05084033331698,9.14279457244733,7.488916240459352
-8.200343436613744,-5.723143150541134,4.223172069380442
-8.544302588115793,-5.195661005369555,8.039198232543637
-6.853935661314646,-7.281728225535431,5.027626092547419
5.456275034929577,-8.380278202017177,5.672438648578792
1.66874308486674,-9.859781768209144,1.5539044556431647
6.943983125767783,-7.195908445015979,3.2922994015670524
9.951460462490648,0.9840907801038543,2.7181859894279237
2.354829378343252,-9.71878483139181,5.53977124443472
-4.627522914463425,8.864876292205997,9.47585197500891
7.346709613257524,6.78423598192674,7.070599645782684
-6.605889928713196,7.5074774891254625,5.200411986680807
-2.0157021189739495,-9.794740678933971,6.8220661204595405
-4.781872077140062,-8.782579315774392,0.6925106636026701
8.076695058510353,-5.896354545974524,3.669087695290129
-9.472593128042488,-3.2046808625138077,7.982243157732451
-8.862955772887561,4.631200164950664,1.2515952630754135
1.7019876988612073,9.85409751691778,2.8543737302177696
-5.113204180544628,8.593901500951763,6.510022505252893
6.555837088134774,7.551225071062083,3.859644010410207
-9.61158527988036,-2.7599689142429074,1.1139772940960724
-7.745034273075322,-6.325697124340417,6.659403479544861
-6.562969283653245,7.5450271160429905,7.710123818865191
9.991766316647784,0.40571649399894544,8.200882192719112
9.86908827514624,-1.612791560422799,2.127728393391232
9.999938965260466,-0.03493838956589174,3.0449597451203383
-4.846187593695042,8.747254758306532,8.368680410756014
-8.697185407068789,-4.935480320604033,1.0389151422666199
-1.637351233207847,-9.86504338252563,7.039482756874892
-5.598188671809121,8.286150106945204,0.1577873897096782
-9.653201171269469,-2.6106909328761545,7.449108429423658
-6.734633005290219,7.39220659100215,4.168184638141965
9.196906863124742,3.9264365716268794,6.577517486083369
5.718500280481371,8.203581811753601,2.5396591675341194
-4.293552921689033,-9.03135667043748,9.757650126480048
-2.9102960681112693,9.567140471213753,2.952134701427517
9.99020836015285,0.4424216549086323,2.988844991531164
9.417288649865519,-3.36372925264714,9.776371274484415
-0.3802293530479217,9.99276866734544,0.8586352853129364
7.474460064462477,-6.643225628018032,6.8464711367309885
-6.859620052677843,7.276373597672128,1.5178242474001535
4.937460204705387,-8.696061564119164,7.11594346258136
-9.830548760543428,-1.833115126384064,1.2823905669470859
9.83875377878204,1.7885536280755288,4.343937565884573
-7.405491088302901,6.720022450934692,5.063121682922482
-3.4811225742369825,9.374528554713441,3.9057431359174877
-3.2730769652888636,9.449178121894805,6.256804433981938
-2.5714366442721825,9.663731866338916,0.14902099903982502
7.618336177058225,-6.477727525400083,4.930137906285089
9.019716154586916,4.317953275648524,6.397813557305254
-9.912306207481041,-1.321433179972717,0.1895987837956148
-9.892693497210999,1.4610322960972624,6.383482506990198
9.5320068180619,3.0233832076700855,8.33832363306982
9.740872787646646,-2.2617244162110133,2.756662717970013
9.35517322289824,-3.5328082271144816,2.712779382734843
-6.7830804991414295,-7.347776462452247,4.260484390294811
-9.984216059788153,-0.5616312593404317,8.922784373467977
9.84551098184142,-1.7509750159382653,3.9756326292834654
9.994430854046389,0.3336943267206759,4.056386791835669
-8.90087860842428,-4.5578898624358,4.115724920120352
-6.152003325420074,7.883708206422937,2.585727440792497
4.008753733618297,-9.161325968614006,8.531903393158396
5.93134130312602,-8.051036600701263,9.421344228582209
9.343250730888219,3.5642202204348643,7.678576144526367
-7.576965762765121,-6.5260700141727845,2.2608871267594766
2.3327963702459718,-9.724096929533726,3.7646297915214753
7.244955280464978,6.892795005225575,5.871530792556317
-2.893356486464813,9.572277066729315,2.671147179822971
4.520527270481997,8.91991217427776,9.875850134118043
9.948489103849788,1.0136885865896115,5.597819293707906
-9.97234687824433,-0.7431673700927275,4.329047494845678
-9.97344921207337,-0.7282244257047834,8.409298361163602
-7.340176988417833,-6.791303393215569,1.2780225423901104
3.9973063166077534,-9.166326538543549,2.450100756213841
9.990956342677784,0.4251956710816443,8.999180408488186
8.251353141519978,-5.649351408252844,3.8173703893497146
-7.277203727420758,6.858739381957404,4.017558311463981
-7.94158820726237,-6.07710266050124,9.942776672824191
-0.9198843912511938,9.957600750518793,8.4082935961598
-9.712221479433436,2.3817543816337974,9.193933185042438
-5.522675689223739,8.336669192888554,9.235536139379633
6.644473364812517,-7.47335090199149,4.489323121085736
9.697316759110908,-2.4417304669980937,9.159725503572027
9.422137050557112,3.350124385827924,8.562757644578925
-8.472159555365668,5.3124864675993475,3.691823606540572
1.521128419469275,-9.883631333244017,2.192325307144621
1.3655856717954529,9.906319991449244,1.1274881755193011
-5.303785426118829,8.477609341889346,3.745233333944608
-8.673491586305062,4.977001477023623,1.3321521304648154
-9.878304624431976,-1.555344896454109,8.830729956012206
9.929095200236763,-1.1887255800374195,7.407708925579291
-6.162031728977425,7.875872330800918,1.9199164604062469
4.222246443409078,-9.064912298037935,5.499703220767836
-9.996891948694484,-0.2493017571687064,9.261446547585594
5.644145814138934,-8.254914780222624,2.261539092784722
-9.41417301019579,-3.3724392558059693,1.7507981343433554
-8.477651217387875,5.30371849142862,1.3411190387897554
-6.08499340763506,7.935543789119802,1.1749487897110156
2.0074307904385607,-9.796439231761672,2.55134975738305
9.98956183338833,-0.45678701482332795,6.557826586580147
7.253017105229816,-6.884311357807961,2.231642424675495
-7.94925678312466,-6.067068204326251,0.39292189647525677
7.1188647060717045,7.02294562819951,9.259819595381213
-7.0895857796199575,7.052501221085359,9.54286483116479
-9.99931902027741,0.11670103135114225,4.670338265857795
-7.341072553907618,6.790335320016551,4.364851096754529
2.3573564191466474,-9.718172189928932,5.023108901989674
-8.729857675717138,4.877456812901839,9.915516397771917
-0.42435004751299515,-9.990992294921247,9.026369335765015
0.8375490300861028,-9.96486385367115,8.960639377710113
5.634262229678999,8.261663823178273,4.184267160015327
-9.608540478545715,2.7705504637433522,9.61218994521731
-6.462269278146401,-7.631453058017535,7.115147199903717
-7.210981790727394,6.928328919284789,6.232599707003768
-3.448576868910047,9.386549822976416,4.315000415982696
-9.967324584552376,-0.8077379687607809,0.377307059393035
6.077877929082253,7.940994892277341,2.8540993362782596
-6.254948030491967,-7.802283328349764,9.385009287323884
2.1218470245342846,9.772295800090939,3.9777917433666374
9.996308054858126,-0.2717080646181401,2.6936834441520907
-3.740049327943986,-9.27426714218141,4.580281474797756
-9.665639826611038,2.5642555922198067,6.339426866798452
9.730136456563711,-2.307475793296603,2.192296158884628
2.8650343219702075,-9.580792155867526,6.856604930311926
-6.041321523174488,7.9688414624478945,8.297522452015933
-9.555335282734232,-2.9488247887140258,9.458095406146354
9.822893434044747,-1.873703440622494,2.401608060838024
3.3388940223040375,-9.426122570167564,7.394546772004419
6.699962760041062,-7.4236445910390225,5.606475969513674
-9.98033598276569,0.6268123093178912,2.005787817216479
-9.997412304095338,0.2274801572074782,2.629767330524093
9.400576373496612,-3.4101559855902868,9.715664532298916
-9.856223561037726,1.68963224248497,1.1909770713793666
-8.409433800015877,5.411231205848676,6.772393143384599
-4.198157521994314,-9.076093511005855,8.250227973156921
-7.614412383300209,6.482339396934137,7.958876756003374
9.191482402226391,-3.939118080175124,8.5828464429065
-2.1230969648098874,-9.772024318329088,7.968996082387534
8.325809156782999,5.539034381986482,1.9256750821818958
1.5021211955513982,9.886537913439428,7.8677292758067505
-6.7323769290433315,7.394261348186516,4.991134734918577
-4.99466185223949,8.663333826061626,7.449743039695345
4.917323613176563,-8.707463952454596,7.952253881867785
-4.0256623633867985,-9.153908593382994,2.314451847981772
-9.679780032847937,2.510350277486868,9.06621789354751
-6.108253977971103,7.917653272314985,1.600709531233232
4.515416429065385,-8.922500460752378,8.600043430980138
9.233947905801646,3.8385161290453635,3.810442776428137
-0.041820524494223923,-9.999912551804192,9.466912988114304
-9.122187830332741,-4.097034194161579,2.4971208330442876
9.999516030153753,0.0983827357728223,6.278349160362836
4.196829618093463,-9.07670761656965,8.366342943703678
3.81551376402143,-9.243476332882723,2.400861390173117
