9.66618446171175,2.562201778190458,1.9063361325002004
-9.970710093745334,-0.7648138508715058,6.203142482647244
-8.994861140776557,4.369493455556132,1.640940585936408
3.3685660951905074,-9.415559593690276,2.885084846276361
-0.22038233424183845,-9.99757128640522,9.947822955419129
9.707383424611944,-2.4013968950528137,8.291377693160683
2.3775240192399445,-9.713257926048147,3.5402051438628823
9.99896351188936,0.14397460854331431,7.147054581743257
-2.442238637052104,-9.697188790556254,8.063445501360926
5.1992517634998725,-8.542118068707753,7.744588192914689
3.7407997970511224,-9.273964463937862,9.504562569044772
-9.8710647444969,1.6006501210290596,8.516054287293594
-3.2199927827102077,-9.467399140170134,3.6121624067920477
6.4737124080120045,7.621748333443673,2.8398786229352755
3.2427091502153225,9.459642560219166,9.87647241471688
9.527362629776313,-3.0379863924550032,9.679024624346738
-6.335853903318569,7.736727687840826,8.219372559686601
-4.903575599605595,-8.715213499332798,5.79621281441851
-9.617815185454532,-2.7381802457910256,4.893024318460073
2.2148415993022614,9.751639692379953,6.873204163598482
-1.4054866200562395,-9.900737718010861,0.8426326062386813
-5.159050094215165,8.566457968459222,1.2407035281899759
-9.133114809034733,4.072617571659588,8.316074716558088
3.0306237096374904,-9.529707232154779,9.719510559020492
-9.260570826579839,-3.773834650047405,7.869371384571257
-4.757671515940518,8.795712691215433,0.8313589063027937
5.179839449249188,8.553903394357565,7.69972828217595
9.992436677247937,0.3888563374695089,4.462448980225187
-9.758348899620849,2.1850919324524027,6.661531427719564
-7.744562636920769,6.326274540581592,0.30577145071642553
6.742322665805009,7.3851936379604854,7.021053708495996
-6.508697078970417,-7.591894515481757,1.9602653711057372
2.500248322790162,9.682394245453187,4.776929371563198
8.74754880026923,-4.84565681687306,9.913345246065564
9.881058908420696,-1.5377499303592888,8.108634159512269
-0.1670083053058254,-9.998605314040498,9.014882186162813
-8.513625691941021,-5.245777118551814,7.066181313562111
2.0917301476350767,9.778786478366042,4.441154782697395
2.396654052503478,-9.708555471985452,7.292909674363612
9.26962158190759,-3.7515484440738662,6.90103153068632
-8.412435105826939,5.406564120608439,0.7684529296152864
-7.4899892506573105,-6.625712114560814,6.7436839445381045
-4.3759368051620005,-8.991728258640192,0.529746513104149
8.476699959267593,-5.305238712871718,4.134010629609061
-1.4415496702603934,9.895551250343367,6.423998624023552
-6.996952244891293,7.144414551431817,4.353529606729001
9.390468250429707,3.43789267396055,3.764700599619215
-5.449678891733533,-8.384569158698255,9.516772771934663
6.236501226510068,-7.81703604006905,1.6100836578504807
4.270614114538571,-9.042226223928703,1.4743224199666438
-1.9361574994999566,-9.81077439028796,9.949759222873544
-9.38054373578882,-3.464880837915372,8.483177479383686
3.6448972474439256,-9.312074100627406,9.442943153741952
-1.4130516026210882,-9.89966086127853,1.64138573284891
-9.876174849750143,1.5688117596329807,0.4705434303969158
-8.494202810915644,-5.277169563983404,6.29803208138906
7.616020870444707,-6.4804495292341135,7.62797258559681
-1.8080701094318532,-9.835185940254464,7.963855054513129
7.407147822755529,-6.718196270714932,3.3887011684830917
8.810520756621283,-4.730192807607901,3.971239982582654
-1.4098168513590363,9.900122041956052,1.5592652878682167
-0.3512180853445371,-9.993830389621735,9.774668619714825
-9.925227963748435,-1.2205940634076888,1.6451957643682036
-1.3919567368558263,9.902648960895347,3.868480595793012
5.088375099059798,8.608625839892694,3.62537995428891
2.929902193475986,9.56115438305776,3.6734474023825623
8.430941618262715,5.377659660990615,0.822724174377234
9.049094335408178,-4.256041788902411,6.04773842761027
-9.45556949656061,-3.2545668676050448,0.4703597278425464
6.474803385631055,7.62082155134344,5.954101946307835
-9.999814655092518,-0.06088401922433953,7.8911969057839375
9.266998287231145,-3.7580237817841198,4.181637370900468
-7.651678854387962,-6.438308062628887,6.73237858350133
7.093644209458622,7.048419101444958,0.3459886636943843
6.295208824588333,7.76983563885525,7.733620276152004
-9.993291449846495,0.366232164650975,5.331140191463202
-1.0814604772470173,9.94135017168959,8.888122135443323
9.976072528840668,-0.6913587341681233,1.7937115736606513
-2.8350810873670356,9.58969839088038,8.055767418974577
9.991818619044587,0.4044263642666298,0.7947490555097159
-1.3038745264053757,9.91463116910514,8.55779423348279
-9.498196044412845,-3.1279820814544634,1.9058587249739922
-6.991430945452485,7.14981771340846,5.5015543118908266
2.398938238973343,9.707991312603832,2.764061141400197
9.998365226114878,-0.18081151848486837,4.97107559803467
-9.885641174213296,-1.5080114637159667,3.0270086128670903
-7.182530190385547,6.957820065523407,4.15524209493125
-9.253772902129962,-3.790473199457452,9.540210521308092
-9.118717022368406,4.104753325836848,4.091321860572112
3.6981169603325874,-9.291067266342466,0.30644875791952964
4.54115581814461,8.909427806280904,7.745620855944764
7.971707154423253,-6.037539651556511,1.8892347479858718
2.194619511819425,-9.756210596247985,4.038434603792127
-5.553207469899286,8.31636259408251,6.426046531285861
9.999058642806842,0.13720881061278922,8.893504298687395
-6.436363837831502,-7.653314350466401,8.084016314728203
6.339061868852033,-7.734099470711905,3.7072658185026186
5.495228392129631,-8.35478694631601,4.471789242824366
-9.271117122253003,3.7478510249831434,9.280257723517744
8.041187054555708,5.944687607742369,5.819635859530404
5.3790831668013155,8.430033468773107,6.487932030209709
-7.250093194408562,-6.887390556109815,1.4505561343488027
-7.580408414332462,6.522070857627783,9.91106973878847
2.0040175109589486,-9.797138042090145,6.830336293128529
-9.199797321673763,-3.919659327049258,7.203274437153708
3.790018693674486,9.2539590609424,0.7028257150752737
-2.6790171623760233,9.634462467812863,2.66434836210148
3.41281616035434,-9.399610941715846,4.734259352567001
7.767036681255343,6.2986618572546025,6.9544298370538105
-7.500772849083445,6.613501845955184,9.863581348281185
1.7397729073001633,-9.847496647931612,0.36496976474995835
1.264733086590151,9.919700107346197,5.438058930072831
-9.557496363773385,2.9418129200305247,0.48449337049997876
-4.775070384243104,-8.786279236714732,3.1682513020756433
7.343806272973143,-6.787378685843329,9.530900321166055
5.39959852024515,8.416907735039418,0.707021373122344
-9.374862221841234,-3.4802238895642983,3.9672318118766947
-8.243057469767221,-5.661448891415944,4.254219398714529
-8.825867974324966,-4.701494921807843,9.008148752080086
0.9184983751227392,9.957728693577511,4.909616485694048
-7.725437033860367,6.349615943965331,5.0471653345560865
0.7399244252579745,9.97258802141684,5.520610768699248
3.713106465654322,-9.285086987999415,6.013921745099104
9.943763176438827,-1.0590438569290734,4.159951277987143
-4.804348723242617,-8.770304062316029,8.203763967062825
-8.347868246982674,5.505732987624663,8.533997666146918
4.289798198414058,-9.033140728278482,0.27728428074578315
8.750804296927017,-4.839775217598817,4.037268958325567
-8.169319977816654,5.7673400367973535,9.83055909664609
4.400151277656683,8.979903603810914,9.402110629305362
0.35922607558949887,-9.993545748462683,0.19586513716119525
-0.30387519598851287,-9.995381926933204,9.85725943542271
6.856699413099281,7.279125851254667,5.284436869767713
-1.5041128561154746,-9.886235103216398,4.862606396091792
-5.51634848595322,-8.34085723301398,0.88963006046477
-9.311734233273505,-3.6457654297667466,2.306620341267255
-6.046295932903875,-7.965067827190806,3.331294134171899
-8.169582615315678,-5.766967998136616,6.704659233495482
-9.99968009382761,0.07998763096781361,5.17459439497147
-7.420621269172615,-6.703311120595776,2.1340889179643807
9.838809706759374,1.7882459434254339,5.693988122696481
9.968936582171118,0.7875934361397628,4.67730686006385
-8.6657828331173,-4.990411595174242,3.474613976294876
-7.067270658739751,-7.0748629270195895,8.43398957515316
1.862877936451448,-9.824952203134751,5.695814239667209
9.491308135174513,3.1488203955084644,2.787261417925857
-1.7493582951930706,-9.845798370626893,3.313267418047764
-8.64989815709335,-5.0178941670697945,7.340694818582203
4.611940940749927,8.87299277352544,7.142819333769551
9.97297586260951,-0.7346784628720827,2.556376283349616
6.260600563261265,7.797748430623594,0.034020242521267674
-9.960920685885018,0.8832095388456467,2.296356740416019
-9.07760736234516,4.194883142007289,3.015816600330302
-2.649392365291912,9.64265109265771,7.403839537208197
-2.1005076983614317,9.776904796975593,2.9266803889283555
-9.978228789022305,-0.6595075692715358,4.731769579027113
0.3769408807441585,9.992893253328779,9.786976120813073
9.546471668333208,-2.977394613703628,5.93626796448183
-4.414465836100787,8.972875312958438,1.7042862222677335
0.7481892221779729,-9.971971364169509,9.510468854526714
-2.4133577465572675,-9.704416746365132,4.831038275534886
-9.684072092839244,2.4937417068919046,5.075318095036831
1.1372667351204515,9.935120752823716,8.888288422339935
3.63187375160189,-9.317161212108827,8.788100622408685
-9.970021988492748,0.7737322204555839,4.313788048879289
-4.798277632217331,-8.773627058643584,7.130752085769209
-5.009032337119102,8.655032931519969,6.80846878397194
8.729823651146965,4.877517710872514,3.3771445934627153
-8.824513740470232,-4.704036271570625,0.361668382564051
5.78411173810477,-8.157453732698619,7.944649713141651
-6.274153090302578,7.78684807861606,1.6439952938981262
-8.264485006822852,5.630123228846799,5.448854879758165
-8.479488751497714,-5.300780179673908,7.897542431955983
0.15988065487838127,9.998721827123488,5.586884824083694
-9.122957344685437,4.09532041323387,2.6460618578937654
9.872675920365415,1.590682297455064,8.006256487524391
-2.9537247440976926,-9.553821755512557,7.859723373514954
9.393384645427195,3.4299161656012256,8.529022012377826
-5.961568020774598,-8.028680261019094,3.686432887376939
-9.818456803791443,-1.896814696295217,0.18151806323080333
9.6480571348435,-2.6296375268837795,1.4771731130230281
-7.654699195662901,6.434716794383242,8.46184501642723
-9.888166639330676,-1.4913619657306194,8.921994727231649
5.738614891815333,8.189523742162013,7.717707359011787
-9.944515123617489,-1.0519595791393574,1.1384569783442477
-0.6834992263387463,-9.976614095352907,9.927152591966372
1.017557436730267,9.948094132192102,5.420889007457678
8.757403548143897,4.827823846719835,6.1968206912435
6.5513946544210455,7.555079621157104,6.571786405002316
2.172126972010895,-9.761242975024379,9.503181000106007
7.659699276397031,6.428764033246422,5.107550905673877
-4.6750092399799055,8.839925825825832,3.208350945103724
5.11811813661064,-8.59097588983331,0.868525584445331
-1.6663172235409212,-9.860192032132582,0.14199633230848052
0.4237597241949608,-9.991017350407827,9.559133535046767
-9.997801725436899,0.20966797287846214,8.931816649991216
8.85160711912741,4.652854114262875,2.6998640327408086
-6.316517743310048,-7.752522402318443,1.7313631466528523
8.697291962805062,-4.935292545911182,7.888425543243665
1.8608298249331645,-9.825340317904475,3.6173094763510982
-0.1262170334054365,-9.999203431297833,4.218273585351805
1.1582921781811364,-9.932691439381593,3.988196752359636
9.897237621849346,1.4299256822121598,3.090616329549719
9.892978081628694,1.459104066341478,1.480895475941053
-9.372163911224098,3.487483852457045,7.902273844297064
-0.7783621054987366,9.969661600712612,4.90257986844691
9.939596879738994,-1.0974579118503156,3.3908124654926364
9.823709081068767,1.8694223414004192,7.204282172162894
7.309603155904306,-6.824199711555473,5.222366891979205
8.123219286312146,5.832092971351399,1.5535889433308714
-3.473828709217016,-9.377233819150488,7.510151022988834
2.7020987195032378,-9.62801446353603,6.357409835891181
-6.797274388786144,7.334647972708162,1.9467303688252269
8.941939064997237,4.476798605909844,4.251615970188362
7.72714689635592,-6.34753502094609,7.026997822508561
6.90577857054662,-7.23258061376291,9.579028111476756
9.687941043405736,2.47866866270879,8.159153541233358
-4.929096572500897,8.70080496155154,1.1952870029929097
8.779130522060916,-4.78820083921074,1.5206108513525363
-2.631150105370458,9.647644744859184,4.291537376541573
9.055744169213607,-4.24187429584538,4.883339354950302
5.042111679281788,-8.635803947152239,5.962962348087729
9.616072074441842,-2.7442955123564516,7.336057041171092
8.904400339130056,-4.551005888866825,0.9535139036915052
2.714621148635772,-9.624491260289004,2.4929189083202994
1.9121787007978406,9.815476178780889,7.3774994711391395
-3.57518964811,-9.339058784483964,6.1955037219132
-2.420284200387661,9.702691605392488,7.6182891789742255
8.051324025106803,-5.930951141489702,3.848583389603104
-9.943311798817376,-1.0632734697617292,8.488258030311574
-7.813251977545473,6.2412413457085405,5.4932422820735045
6.529688342208528,-7.573847777294316,8.015206697584647
-5.343224203277202,8.452807528479086,9.339542406455477
9.955521340552696,-0.9421225174040949,8.181652657468446
-8.015649306551905,5.979077369826715,6.054046102665543
5.900854540999251,-8.073407935064875,0.6196396706880758
-9.908438248995298,1.3501301662606469,4.1715781314350036
-4.078150392491933,9.130645616615393,9.631063980103114
7.8047647336828705,6.251851521898145,9.551789387312272
1.3915075841770568,-9.902712085240978,4.185134032635453
-0.26147632655971276,9.996580922027732,9.219920302784253
-7.626662283854201,6.467922572823196,0.6246736168141498
9.890052170710783,1.4788062958409833,3.8127318156066012
-3.7464409289655025,9.271687029110296,3.676403053362426
-9.318088192923975,-3.6294947897594247,0.3162202837191852
-1.455631599457547,-9.893489609165245,9.76580386907772
9.229016196340101,-3.850358431067434,3.593499478488038
2.1533785320172614,9.76539609528703,2.677804164368208
-1.8487496553465816,-9.827620501009179,2.0741421870498744
2.654461467013302,-9.641256884874585,6.082067694778144
1.214302150302792,-9.925999712259214,9.581566667136398
-2.3564210363361164,-9.718399039940305,0.49687960030972533
-1.679388469175303,9.857974151396473,4.439083934344276
4.873572154558248,8.732026938478516,7.657794143279134
0.6535904522430755,9.978618116790356,8.752499467381917
-9.919208853353302,-1.2685801998917805,5.1614284188615125
7.498742608801247,-6.615803752148991,5.493613724720685
9.514461104992817,3.0781536481434557,6.9309602306637705
6.038390936199944,7.971062344607422,5.487624906727003
-9.999913561341835,-0.041578428200762366,9.778235572712104
9.812882119449064,-1.9254465741216655,7.045885343327906
-9.128873785340083,4.082115065910149,6.079363889545686
9.959947253587762,0.8941200734518867,4.351770797439975
3.1707864181444814,-9.483992486843844,2.469807026740354
9.798368957758548,1.9979904323178463,9.443974902861257
-9.999949733785755,-0.031706809334728095,1.9753848455856082
-3.4608059841182595,-9.382047854295525,4.71791661507809
9.956433543250022,-0.93243289240879,7.302245325071213
7.5829659542473005,6.519097125885327,3.918160193652688
5.382663694795799,8.427747715061674,1.9100801537733658
0.5914787436318363,-9.982492318846617,5.19348399441014
-9.803286072717812,1.9737229229192614,6.450572511095283
-6.675143976353212,7.445968902362904,1.3852767684032286
3.4053098497572436,-9.402332945984538,4.137256070925966
9.758445037585382,2.1846625479522572,3.8448534786808386
6.253063358883201,7.80379386130825,6.622692772485799
-5.239087309576326,8.517744077080286,7.712004376606422
3.5396375349964018,-9.35259141205498,5.468163118458834
8.133789839864143,-5.817341561308124,7.217204654867611
-2.0164205411391984,9.794592804260517,3.335839984997686
-7.06904624877725,-7.073088797169755,7.909538890723241
4.344951221940057,9.006741857018087,5.0817725175101796
4.560611556628312,-8.899484379982264,3.1779136242108272
-6.924333173416461,7.214818785217293,3.2051255879221827
-9.964839695997158,0.8378363999488707,5.228066029597949
7.555350415750946,6.551082360588363,4.767408139106786
-7.365237821880944,-6.764116485331579,1.2146952609703465
-2.016750141753744,-9.794524943341369,0.5132838548260477
-4.481840410950904,8.939413097668517,1.478481948018947
2.089177553221147,9.779332142386663,2.505234134680628
6.064338097619235,-7.951339725968443,4.927786531519982
-5.201542833472981,-8.540723163265852,7.1676172514158365
4.525548776562424,-8.917365545437416,9.58490971124249
-9.36934195472338,-3.4950581304837103,5.974322530384891
-5.631072868186234,-8.263837991706811,5.055669923889294
9.614298266153611,2.7505033810987563,5.67510569606823
5.777400406721035,8.16220831273128,1.7010354161354169
-4.837880627303473,-8.751851863232247,4.823848489683772
9.653181948679938,-2.6107620086250307,0.06239326774569953
-9.216829369544122,-3.8794402138335493,4.3911632052968255
-9.028376633633133,4.299815735734179,8.117925772804275
-7.689020596370368,6.393665792688282,0.3162123963395036
4.724497425278043,-8.813576123148943,3.3591259800528226
9.682259327359082,-2.500770744744119,5.818136826047853
9.665018697842791,2.566595716186957,5.6507536169325645
-9.834261950482063,1.8130890461587215,3.305894966354873
-1.7828572965383644,9.839787592228804,5.176215728020597
-9.331507133082003,3.5948539087478486,9.743477313790978
-5.592446357054389,-8.290026763736599,8.843331543620609
-8.960231981355518,-4.440072391334825,9.029134736294484
9.512469462439267,3.08430295628695,9.554844869064427
-5.437017967058391,8.392784736062533,4.205040390260535
-7.248891873044762,6.888654920440245,8.788432746775358
9.821562699389874,-1.880666409003333,6.049462686801597
6.570602623367272,-7.53838053999658,5.617792621567046
-9.992473841869822,0.3879001412056382,1.3906499089048918
-9.066068803903791,-4.21976260503864,4.983185953707094
6.183076539614608,7.85936158382266,0.5458654010282893
-7.806032319750318,-6.2502687480630374,4.521901675357122
9.89860299703267,-1.4204431375932862,6.483948841439501
-8.653224470850878,-5.012155849239681,6.645743712641582
-0.6579677005985625,9.978330446771595,7.55660049742411
-9.929591865735414,-1.18456970243253,8.190574927531166
-9.3866633702577,-3.4482677931770853,4.622645746566706
-1.4072754328403059,9.90048361728477,1.7780178280508951
6.94579163921088,-7.194162807767714,7.9335655112459165
3.7220186891010694,9.281518026593622,2.2458934776309447
9.89981289115576,-1.4119860906206623,8.917525739386601
-9.936044242237708,1.1291699678502332,3.3876781047069136
-4.1061353364540745,9.118094789961507,5.8801386992777305
9.798544983145343,-1.9971269897723625,9.30679174346358
9.34304747354359,-3.5647529938427343,2.6625700441444544
-7.4346668948270604,-6.687729671791659,2.805387924608209
9.89816972974301,-1.423459167380368,2.957307387248319
2.798856786210147,-9.600333363497613,2.2510309303596356
4.290176778219498,-9.032960932696774,3.060040508732078
1.7238826979607333,-9.8502907796507,0.5920665021884919
-8.964939873362603,4.430559001637753,7.437770044314906
5.262454311674479,8.503327267460584,3.3793170783248936
9.006434360751202,4.345588579868105,2.869396790169738
-7.693599493255348,6.38815519828542,2.189624131187833
-8.9305847412436,-4.499406202985787,0.3670596308052265
-2.218170233083744,9.75088307883246,7.994861859965195
2.201890039768525,-9.754572274209062,2.57513793026658
-7.601627541953401,-6.497327043747721,2.9887585846942932
3.2976106969233014,9.440644241339518,3.808153748294342
-9.919286535878054,-1.2679726413248567,2.4194489607872285
9.05603734171742,-4.24124836167604,3.751074897200677
8.291724049786328,-5.5899295417916495,5.100968307496634
4.06763079398611,-9.13533686975012,3.6627842670175115
-1.688423443758165,-9.85643070662843,5.2015610903128895
9.458582044961299,3.245801241409544,4.780980360657905
-9.93989564868246,1.0947485982194611,7.577247468048557
7.995740849748907,6.005674671813037,5.3041397654268945
-8.715980040107684,-4.902212963595569,9.154033572298516
9.790112377162028,2.038062718009151,2.9241265363745708
-4.959772402161349,8.68335521090544,3.2109260373333126
-3.1921748859336203,-9.476814839259797,5.371550652951019
-9.984083907327635,-0.5639756479151685,9.070826728986738
5.348911995197389,-8.449209458146573,8.640301334478792
3.416734302759086,9.398187415898311,8.375916001743732
-9.760183942657084,2.1768806594526033,9.018668421453405
4.34604901036827,-9.006212189343364,4.5748018552457514
-9.259756714922782,3.7758317733239215,4.402174980409848
4.069011185632557,9.134722106949786,8.061766094012894
2.911690902707936,-9.56671605552751,1.1553871558733053
2.6704404647394058,9.636843244770684,6.524413541462382
-9.940550793129411,-1.0887836925736265,0.32552387564007024
0.3656020485256485,-9.993314522325106,3.1523696495373077
-3.8141130143581377,9.24405440884593,5.0931141948924505
-6.914877183177893,7.223882165537154,8.82704590178755
9.714909702524153,2.37076558769569,7.017293050827246
0.27427668521983567,-9.996237907330178,3.729300565114224
-4.648685317908613,8.853797197534,7.3779773075853505
9.313528400570402,3.64117957971981,1.8614441511033974
-3.2805646178524777,-9.446581169295822,4.623371095474554
-9.342286306674222,-3.5667473367379583,9.250191789286296
-1.9030726979056503,-9.817245759707053,6.2730986229636425
-2.0057857402270556,9.796776182209218,0.1549856752826384
-9.956324345434918,0.9335981622196655,4.8463429105579
9.500514130013654,-3.1209343577542437,9.84667912763938
0.6137523205299303,-9.981147633866765,6.706749778858709
-7.695439049906925,6.385939071833336,9.315984502138676
-1.518157535456191,9.884088106524425,5.528001329124629
-8.686882944858901,4.953591091553637,9.945043380931537
-2.099380927236261,-9.777146808878172,4.531994886532187
6.085256770603554,7.935341834843891,7.645014924373337
8.385690467374685,5.4479533207784865,8.948291297744822
8.20572804412003,-5.715420130309062,7.715614456907033
-9.99725351036182,0.2343549648679805,9.41999023134173
-4.149944803956514,9.098239287033197,8.418516766092841
7.080419765853723,-7.061703472909913,9.948860225312822
1.3669423960587692,9.906132872410764,5.243769148968403
6.772596255322528,7.357441128707133,2.573363819392611
9.962095304480428,-0.8698604166468314,9.822434142389069
5.616851349718224,8.273510797428656,1.0349173855964588
5.483572782424616,-8.362441601580962,3.3515636496022614
-7.922747104972992,6.1016455412160795,2.33103167540911
-5.128990013589308,8.584489585321956,3.0103476692466504
9.992573919442764,0.38531346261491495,7.604447198720631
9.978838799780114,-0.6502124329809449,8.885476924918862
-4.969896560189903,-8.67756464574091,1.891158535257098
8.846590737465577,4.662384832227843,8.879749189779385
0.7836438551537233,9.969247830617906,2.5492980383172457
-9.992175925971019,-0.39550001826198,0.259375376008083
-9.930422826957773,-1.1775833209739224,8.347817154780468
5.388438199658244,-8.424056847414066,5.333875374218921
-9.132551581145497,-4.07388041279035,1.0837636832424435
2.6745660038074215,-9.635699076417735,1.8561786910877964
-0.33759209109627514,-9.994299954475514,8.361271631041786
9.798818461001389,-1.9957847500014525,4.338351865831305
7.708213527852501,-6.370513653468745,2.627311494376936
-2.0988017549194242,9.777271152706524,9.303058930579748
-9.976203612863962,0.6894646290274998,5.470565902766362
5.807041943318345,8.141146348551997,2.79589440315433
-9.7809969729608,-2.081369312479568,9.834773489807597
2.853472742799184,-9.584241926521997,7.194913031534248
0.012290878254281698,9.999992446712735,4.865408636868713
4.731654151129751,8.80973603430299,4.705938946570761
8.883777484251564,4.59113249757671,1.9561975335877246
4.327729297449946,-9.01502962435473,1.6073026798583756
7.123773505720026,-7.017966303652463,2.3718534858494476
7.661533501509926,-6.426577970058486,1.5998749262825929
8.799336283475442,4.75096631963568,1.1531878764907688
-9.22744973011962,-3.8541109841460655,3.8288155474870034
9.262198863597087,-3.7698371597697484,4.1519256658083705
-3.9497245752764014,-9.186929616550769,8.03791093530963
-0.9749875127684143,-9.95235647221027,0.9887171378903348
9.926496080292793,-1.2102378146181874,8.992314750751987
-3.379050968687749,9.411801875890205,1.903458827840605
-9.74070267962203,2.262456918308984,5.899775114356358
-0.319541583159152,-9.994893354940418,3.41180084158077
-4.997429640992959,-8.661737526808636,2.479842453479726
-0.3915704711165163,-9.992330687389684,2.1663727670148236
9.910612229981957,1.3340784185841728,8.898962011765274
-7.8663411166377575,-6.174194476747088,9.055997387566695
-6.245540229028929,7.809816082826872,7.945550405162104
2.2306396811056612,9.748038090460913,1.7440202381895908
9.09855655497077,-4.1492491629207375,3.568203714378132
9.707512895059851,-2.400873464438868,2.8872827452571137
0.7019978045139461,9.975329522499877,6.431198742489029
2.169470055011691,-9.761833827739927,5.005266804013972
-8.125711622505797,5.828619959121903,5.9394602267473084
7.628351782215645,6.465929870232695,0.9919128425078894
8.91570707431999,-4.528815227509342,7.909231729018179
8.817561698859672,4.717054768264085,5.9095960066016415
4.943214607481873,8.692791803809513,9.306373587638245
-1.597891764529395,9.871511632412188,4.485968347790736
-5.675534005799557,8.233365882129425,4.879268740315853
9.636136360601217,2.672990093490644,5.388212510438857
-7.069739282793128,-7.072396091377496,9.500513063386597
1.4971138084549698,-9.887297418634349,1.7110896243096985
-9.810893533175198,-1.9355536884057383,9.336212041663579
9.935667703987715,1.132478377690048,2.103175973627901
-6.334647921505124,-7.737715147934228,0.60952068684892
0.421180091674567,9.991126429506185,0.479951965304265
7.9516683808315145,6.063907153089031,8.49170598169106
-5.079322457530129,-8.613970244459294,1.7573821197703765
-9.842190354648286,-1.7695448631973754,3.2588002331785395
-5.7629528566663755,-8.172415455166291,5.158102210450734
4.799178896863561,8.77313409882121,5.86430100334832
5.234289011259169,-8.520693548450826,5.064916015275994
2.753368253058235,-9.613478208382805,1.4658591305074031
-6.771163080768003,-7.358760122034442,3.9322513146924
9.999008043907406,0.14084792463858486,1.701476192385396
-9.756835479459326,2.1918397356475876,0.3476509776671399
-3.9440772935334945,9.189355488968392,7.356769107656098
5.418200970758495,-8.404944868377882,8.115206952368744
8.545218557508644,-5.194154387810385,5.597320229242251
2.704363737655186,9.627378499594563,6.002630988440516
9.222681419418807,-3.8655073969541327,8.357113095547295
-0.0221042699008901,9.999975570032767,0.6176426690083947
-6.304887598945637,-7.761983790543595,1.23269141353485
-9.362724059831278,3.5127479527367926,2.5119891984880227
9.90231425778266,1.3943358060790945,1.859361884706291
9.981034638445953,-0.6155871556019298,6.396619129003299
-8.02986614494568,-5.959970611861706,5.7234279411053235
-0.6842095004982247,-9.976565408968558,4.6579120709159945
-3.623900902182873,-9.320265138458142,4.541505144818821
7.908751682989651,6.119775062598981,2.556840801775806
9.995971243957824,-0.28382898014168495,8.643282196510935
-6.849426545691589,-7.285969804712025,4.167212777614938
7.879144590646494,-6.157847068552945,9.707848034371109
6.1434387468760745,-7.890384044099611,0.9452932688136828
-8.703091554435238,-4.925058110836668,7.601252300388843
1.8930788941609744,-9.819177781285063,8.727819227881866
9.962614095526558,-0.8638983641699687,8.675463043154268
-9.980873827493523,-0.618188999946464,0.1632369778495113
4.6994801335176355,8.826940946594865,7.0336573607872594
-9.838195191063326,-1.7916236721305219,5.777541455340795
9.379632919002457,3.467345714630352,9.785881834487931
7.9629150505307456,6.049130838230475,0.04101927368874714
-5.3790557747107,8.430050947209718,7.697906747747469
-5.266860054202084,8.500599106501284,0.8841110711301658
-8.362891768962147,5.48288621627562,4.192196599992288
9.96777001124588,-0.8022225395158868,5.653384527810705
8.97293825374277,4.414337899902956,2.3718969502096
9.515027098253643,-3.076403634034202,3.4384601160046313
6.047145706098388,-7.964422691521076,7.866224265839454
6.947802958995128,7.192220383371087,9.43430998948193
-9.712948577123564,2.3787874932732707,2.991208892273576
0.08689674470018527,-9.999622440660472,3.0677514454062296
2.1088936017440196,9.775099374253088,2.560182265553622
-4.509355094134992,8.925565339797743,2.7940304434286665
9.955520219085347,-0.9421343680085403,3.6775768672324416
-6.399230737845035,-7.684389758713394,0.5680053328791657
9.321708196354772,-3.6201873296850624,3.1896060452642994
-4.882963391082432,8.726778817029153,8.055055708392867
-3.25503866564458,9.455407092513719,1.9277993694833384
-2.235570064539008,-9.74690856048917,5.4768109984100235
8.096301778594256,-5.869403505462161,8.801208759162144
9.324059878856087,3.6141260873835366,6.290715354136759
-2.052440502846068,-9.787108254345457,2.375393284788828
-6.17276407274629,7.867463613021203,1.4818247924998451
7.936663813793671,-6.083532485884997,9.328156048820539
-8.624960207556626,5.0606384397687165,1.7829017100258093
8.628102403698218,5.055279310908252,2.782245992242136
-9.550510065473546,2.964415201905513,9.761345282821807
7.941812275830524,6.076809835387938,0.6520613427015698
8.986435268282518,-4.386796230618435,2.326221667378178
8.173115505179084,5.761959991096889,6.897929062805205
9.829550344989109,-1.8384613173315623,9.786808824282188
6.1384043191755016,-7.894301261943805,5.621589254639218
-9.72835694957546,2.314966751736806,5.139157444362729
-9.88287399149754,1.526041175126501,4.354472711446505
1.960755871637504,-9.805887844139308,1.7373162156564659
2.4999182517111893,-9.682479472467849,3.0136734547897612
-1.026042832473205,9.947222532241367,7.732179340927185
-9.420351167718968,-3.355142899617821,2.669705527241444
7.047165480089625,-7.09488961832622,4.521134635518954
9.571424966573655,-2.896174046781461,6.394110950141374
-9.99774574966065,-0.21232033614893925,9.245191976621852
-0.07683762363866335,9.999704794622367,5.895701586492232
-5.734925407386716,-8.192107822270792,9.59238181830065
3.2559373237935256,9.455097680274289,5.1991781310092975
-7.92953894225815,-6.0928164393170015,7.057939626099317
-1.2526742766239296,-9.921230123159361,1.3037624183088403
-4.782606360832672,-8.782179478769656,5.694619934735493
-9.664538416304403,2.5684036286721756,3.796936188367143
1.195023994143088,-9.928339118574783,9.771106226094409
-9.909080692340472,-1.3454069394370074,5.127482549488258
2.689215210732347,9.631620920196443,8.652356837715496
9.854296736196446,-1.700833864605264,4.943980312306509
8.72081807065707,4.893601146242007,1.8335998356846006
-2.508356930638611,-9.680296767585034,8.420052428528535
-5.205359373234469,-8.538397612870934,2.032826511413557
5.995158750806481,-8.003628649095889,5.025615294123888
3.493288837290507,9.370001766235776,2.3060215698448916
-3.3198004089125126,-9.432864106144237,4.661835146290748
-8.10135975425135,5.862420159984825,9.917347093521087
4.14873036865861,9.0987931248144,3.7905437339280548
-9.184026000990759,-3.9564714599154738,8.563048958732814
6.8007670966090705,7.331409611914985,8.782229069838941
-5.073744264545638,-8.61725705419017,2.599704168102263
7.4673977566640595,-6.651163112100663,2.77496250697609
-4.71845781520254,-8.816810979382176,8.728316187041727
0.2619713654970952,9.996567961238476,1.1212680699872435
-8.930414495886575,4.499744096241356,7.541325778254629
9.501213626777853,-3.1188041968566815,4.877148587543571
9.804969121504875,1.9653448873762343,8.404087237138985
9.35258220456719,3.5396618633441697,8.055366633775819
2.711151943704117,-9.625469086654913,6.918372955029691
-4.863557811997726,-8.737608677971101,8.125999814877824
9.560628669904625,2.9316172049225147,5.46138601424556
1.4335277026832722,9.896716542653913,0.0647935613081263
6.185676998403897,-7.857315067592552,3.719043664391748
9.993917789488545,-0.3487222633334633,6.428139319978739
6.005308576830181,-7.996015813956964,7.778162531899766
8.260579565350184,-5.635851776308436,8.882705418925973
0.5069430221686104,9.987142172427234,4.844944332440107
-5.814849447921862,8.135571639288958,4.42678011666327
8.099056084138734,-5.865602317407426,5.597055486111601
9.576581953305324,-2.8790759093200036,0.10060507229936899
6.583407495779144,-7.5272003922121655,7.7812843105976555
-1.664606958456912,-9.860480904796521,7.351861895627793
-2.9664774869523303,-9.549869701697766,7.259489401439426
9.718568253355144,2.3557230535182927,1.9144493195264867
9.997762048847056,0.2115514467771318,0.5395609147244684
-7.109407783259135,7.032518821257034,9.013634813960278
-6.41787067571723,7.668828853858251,5.701237207410532
-9.98788636262198,0.49206301156443333,1.6516851481346129
3.048742525214256,9.523926134475749,5.815273802917411
9.341328303680022,3.569255597861618,4.6026403403114236
-2.823042526913959,-9.593249235333941,6.460693298644594
9.630773746098328,-2.692247583611729,2.9957118982403133
-3.97265186132211,9.177038584899487,2.6383023385485007
4.888087102746355,8.723909930527983,3.714734471999166
9.991933178019845,0.4015860629880547,5.747356457265581
1.5581936920070036,9.87785565890642,9.409374630064665
-6.513794078911688,7.587521775753599,9.84839498199509
-9.119377133081805,-4.103286573543782,0.4836535314214596
8.002439290297607,5.996746234842786,4.035760536262565
-9.769460473995244,2.1348634726943656,6.635830137977521
7.058034871369676,7.08407677503072,8.494308762755072
-9.300254495660347,-3.674951199124896,8.932085435616893
7.326926404409507,-6.805596921972883,2.346850900813555
0.042319298301836686,-9.999910453448633,2.0294485266897
4.012775892644608,9.159564926098305,3.7432959274504296
-9.939897254278172,1.0947340199305213,5.9266764641036085
-9.995459845486605,0.30130130644400227,8.648845390395293
-1.887822863812093,9.820189653711802,3.3301055167217686
-9.972651426023626,-0.7390693709178662,0.49596679926534937
6.724139820449743,7.401752743441388,2.500054606752149
-9.993485335049515,-0.36090283754813685,8.163018245268908
0.6848262657056481,-9.976523091027238,9.06149601696923
-3.0976076200226696,-9.508145299288262,7.335576129891651
9.713237219978474,2.377608611278329,9.807521007129772
-5.514915667156821,-8.341804671900933,4.421125611099322
2.692395429860277,-9.630732414996665,1.0477795066071494
2.0949063342920313,-9.77810653708289,5.047563016232926
-4.384652191230919,-8.987481580617226,0.05449405117346595
-5.489276126507335,-8.358698918309992,5.883053350149597
9.959305606054249,-0.9012390610800327,2.7854201694817684
-4.279563899323891,9.03799384994279,3.2191703316340137
7.620787902608512,6.474842989869002,2.2939717800796497
0.545016767775603,-9.985136790392179,9.347943142175467
8.764167905320031,4.8155332962568425,8.846719702556776
3.3726782530552155,-9.414087390786662,9.965266624681792
9.047664161784452,4.259081264258909,1.951621193030777
3.2992932923365914,9.440056343642382,8.009874627535487
-1.8037060200050579,-9.835987220070873,3.2919354859843053
2.8294669162095083,-9.59135636758826,8.523235480319688
9.798036359467067,-1.9996208386995145,3.7789843444142113
-4.663623809206133,8.84593765330763,9.433395225095435
-9.990198198651411,-0.4426510495436669,3.3919922976657366
0.03235165209172678,9.999947668393418,7.6993114832083975
-2.8540121791732624,-9.584081306058014,1.6727946388412995
-0.8762725947419554,-9.961533332760785,3.9699426224805565
1.712770529238123,9.852229042920865,5.530896598958767
-8.105806031148171,-5.856270877051531,3.919859995878751
-6.129094659822111,-7.901531411754311,4.859618448061229
2.5953260934850664,-9.657343447784983,7.613336380028199
1.7461120219575634,9.846374602196246,4.074340810087903
-8.945409316228117,4.469860418977218,8.184107317569396
0.6589665179445277,-9.978264534889224,9.157809031692025
-0.49734250482645787,-9.987624864445648,6.026343072764055
-4.54487433641119,8.907531491172566,5.840253564289597
-6.714723076850505,7.410296485378388,9.150028779642659
9.17599488365079,3.9750619989145486,4.240658770731239
-6.751746670286449,-7.3765789428620545,8.037387181537326
-8.045114473982366,-5.939371439851144,2.4483192731676273
8.57253939428236,5.148938563769918,7.785147544595566
-8.146835829555505,5.799057334280347,1.4037864471562012
-0.7092063644340216,-9.97481961404046,9.48483328847734
0.40101565064837247,9.991956087170072,5.601435441443288
8.05788270673952,-5.922037342370292,2.278449353372701
-9.708270820648263,2.3978068464639697,1.8504108230329996
9.057478720397489,-4.238169325256683,7.70826197625664
9.240432884571891,-3.822878510458109,5.8751783245393465
-4.598932660990072,-8.879742022135485,1.2440569606904561
4.261311711276838,9.04661386925157,3.5733041784134967
-2.595141272988028,-9.657393114771402,8.584545259778048
4.546750369242045,8.9065740371816,4.671424543360438
1.5154975005704663,9.884496311181701,4.395695518932867
-1.044474934378471,-9.945304023078183,4.595376781597841
-9.962396593242415,-0.8664029772293762,6.412698118724686
-3.0114666399160543,-9.535778346662253,3.2629493449263847
8.4126030536963,5.4063027903494,5.33675484680511
-8.75083689448709,4.839716277436471,9.499061177345672
3.113966992160524,9.502800091117077,3.5359272007247897
1.140993406578825,-9.934693455066625,1.1507400296122905
1.913564389806888,9.815206127538177,0.3076526034389271
-8.722399887886024,-4.890781143723963,1.968136183082736
9.74704510290077,-2.2349746669745727,9.66178063938192
8.580095507466122,5.136337321745884,0.09313451382616966
-0.4495835736735007,9.989888618512369,8.514252383204726
-9.460118337369414,3.241320879358746,0.4194122119675914
-7.210692260744067,6.928630248530052,7.796610666057249
6.984254161383626,7.156828474205281,1.0889261467531997
1.0524008227583583,9.94446843769226,9.424292380779796
9.777600751162643,-2.097265732057748,6.606099768566559
8.699091220400398,-4.932120430317241,6.744242515575035
9.982329162630322,-0.5942259577805507,9.404204029821406
-3.1623449117510245,9.486810563046065,7.873193529097653
-8.020903258999915,5.972027370145296,4.805551901446487
2.6282201727388625,-9.648443331626533,2.0427892163324692
0.06298805957141969,9.999801623249905,2.680388014446926
0.29241035978729896,-9.995723894820678,3.605087532970992
7.127891140059791,-7.013784135219527,1.7175254657293082
-7.994138138921264,-6.007807871082802,9.441776967501927
6.359897625602456,-7.716974937879236,6.489221430867552
-9.875424836078153,1.5735260744489659,2.952545222889934
-4.03087220476058,9.151615664399843,9.552064224065198
0.6906817516941528,-9.97611942179306,5.787050863531185
-3.791124536032342,9.253506078902934,4.362056905113297
-6.039080548640307,7.970539889307016,2.6001204928411403
6.542045278307352,7.563176817751684,6.322999940431931
9.057610098052928,4.23788854403341,7.139778294992452
-9.995806198100363,-0.2895832350437001,9.167706638203349
-7.890730735244876,-6.142993444881888,2.430362166346298
-1.9315692787051584,-9.811678761637197,1.2005197219422015
9.979312856719286,0.6428957207177086,4.815474763200913
-8.815267257803622,-4.721341247304137,0.27616961835751686
-5.174520546491513,8.557122011163402,8.989867721321033
-5.874428328867003,8.09265665952812,2.237526849006446
3.6212406124186898,-9.321299074000871,0.733738979428602
-4.107229073910964,9.1176021702211,2.1170744356421842
-1.3406652731766644,9.909723337475075,2.112923860880005
-9.951792408974798,-0.9807282236540349,8.280180477631149
1.191566831824806,9.928754629121167,6.191391961621502
1.617520737063478,9.868314276773395,1.842323885074132
5.712293607338442,8.207904832754847,5.356007476847542
-8.13019041680484,-5.822370976371632,0.1967358696057897
-5.685245102776219,8.226663243463841,2.951756293651615
8.538761813646454,5.204761924412402,9.029563884860615
-4.2551093460476075,9.049532830659178,3.562815693109289
-9.109269232389154,-4.125677405208544,3.08669135992214
-9.989968496620063,-0.44780513232730257,7.68269829193447
2.777995023279476,9.606390771285252,0.5638567313462839
5.250689737709867,-8.510596763935434,1.088753764575473
8.508005923779887,5.254886792398703,6.6323966495892925
7.750660710774188,6.3188019866475775,8.194845814336835
0.8399212156889666,9.964664186586297,2.4906689662062345
-0.7511014550927504,9.971752433958514,6.184717336974007
-9.961191692881235,-0.8801477476389397,3.7871689898189107
-6.840399443510151,-7.294445520615397,4.356981446217838
3.0050551722507097,9.537800763893596,2.688817556115557
-1.3432302970207044,-9.909375982833918,8.818412485959673
-9.471721328826895,-3.2072566266274496,7.7550079030703865
-9.615608083335633,2.7459208269158903,5.168492460879934
9.568778561931197,2.904905649539406,7.252234498817191
-9.810093618870129,1.939603874249474,9.94668389917682
-9.890421710978904,1.4763327467062226,1.1042954657487547
9.618609323007274,-2.735389312576464,7.827661993876766
7.371414207513646,6.757385040181295,6.667698570105678
-4.577874710159406,-8.890616578060428,4.247967144325883
-9.998434673772174,0.17692957443664664,4.215025969119875
-4.676149993810718,8.839322442098377,4.937577541891455
-7.019630678994816,-7.122133467614517,9.077741445399564
9.658049140163733,-2.592698749600999,5.676008850049168
1.168091886248352,-9.931543754385858,0.7887157695251013
-4.679212797710885,8.83770148815509,3.7852790116503754
-5.0169409440765635,-8.650451061282768,0.6048989479157607
9.695955164953082,-2.447131675905418,5.689678929595219
-7.590509856422817,-6.510311829670532,8.56918145030102
-5.194224998517562,-8.545175636859387,5.9427134439492395
-5.745600155130801,8.184624539791725,5.940364166144699
9.48563469266384,-3.165870255922087,4.451565876695673
1.797148025561643,-9.837187554083734,6.697414006298716
9.977687322177186,0.6676493846807956,0.25025757416576755
-9.693835013399205,-2.4555167955026587,2.9299234584113263
-9.955812901765999,0.9390364556446587,8.07502475749336
9.940791721944892,-1.086581769086858,1.2761057262937658
0.18850144838107705,-9.998223202347416,8.969476896025956
9.965315776749545,-0.8321547149819009,2.181840593407819
9.931108503964884,-1.1717866198572062,4.7141877039959414
-6.740529505189534,7.386830307355742,7.82054878294308
-9.919909410372492,1.2630903728566971,9.642372921699547
-7.881044747311221,-6.155414989330793,1.917328637780884
5.684223686550939,-8.227369025469397,6.622754463523732
1.1062948705189464,-9.938617190508118,7.1855306072832335
9.708448524952058,2.397087240455842,8.240845720688766
-4.61663460853753,-8.870551555075565,3.2499821283117827
-7.238320094016935,6.8997624753719355,6.3412292111448085
-9.616083619273647,-2.7442550586884273,7.546112451877121
9.422760745273687,-3.3483697432227038,7.858176236034112
-1.100303005692283,9.939282333029107,5.211775901332293
5.709384415602199,8.209928720450547,5.22444113848856
-9.80140539407014,-1.9830411748354462,4.125831458336493
-9.824786096714334,1.8637537803606798,2.0760864687301672
-4.981634366711264,8.670831507785241,3.0660520261494706
9.533160038114955,-3.0197449706371016,8.226488847378379
-5.275058631374188,8.495513900616293,9.367149597364982
-9.586696106904176,2.8452166444522806,0.4195574770713695
3.4915572252949896,9.37064715707994,4.393370797920117
7.077424475990059,7.064705428158832,1.2689593574151348
-3.031622916110133,9.529389408273538,5.2183218935156885
-5.708515874135399,-8.210532657187606,2.924542718748193
-6.483564639276546,7.613369133854131,7.606306928333685
-9.226831974761089,-3.8555896707930923,8.10388075864595
-0.3846341262945582,-9.9926000915122,0.0631393141804093
1.128605626167918,9.936108359945665,7.363379718180283
4.787610777350925,-8.779452320309808,9.620436140280859
3.576387525107487,9.33860012369389,0.8020515655196558
-7.180316118006872,-6.960104916270352,7.084965067790112
8.379972771695424,5.456744115829814,2.689793239113224
5.554522725338514,-8.315484188770851,7.51547924979705
0.9865665444568952,9.951215325444343,1.8058323094948259
-9.591421281750842,-2.8292468602045053,3.9485870583597196
2.264599671380154,-9.74020473749833,7.391854893380902
5.713516137970234,8.207053877071463,6.510081204570514
-0.29702628864620206,-9.995587795815364,6.7302807841283085
7.739183743141968,6.332853621384839,0.04271934018507895
-6.094373999018613,7.928341917455748,8.803184424932786
-6.177281125604105,-7.863917464931539,1.1959619038902802
-4.00346074369715,9.163640219567542,7.87316536007956
-7.259630850100493,-6.877336688011516,6.316409467106881
9.60188272608772,-2.793536846805184,6.478780937791004
-7.561436008494522,-6.544057265140825,0.1427565897115013
8.569061260779932,-5.154724930488593,6.675780949440972
5.507103912069838,-8.346963909210647,9.082816373717534
9.729286381093218,-2.3110574451263712,0.9421774425557106
-9.99140610708747,0.41449246465434286,6.572216881372338
-6.4339677665798725,7.655328783181766,3.5177379124948684
8.66134967657105,4.998101817706657,8.139501873058064
-7.8214541531001815,6.230959390892538,6.471935983213535
-9.571578074553582,-2.8956679993958474,2.155969351420298
0.06578314080888378,9.999783626578393,1.6612430129338995
-3.9334062845780595,9.193928159412701,7.176737521050015
4.082792632817202,9.128570770795042,1.817289673231005
-2.3841950122509434,9.711622631854974,2.374760468274565
3.326173058206069,9.430618897339881,2.3465040854960497
8.047589822653709,-5.936017018702056,1.0678162798764412
9.93705997208983,1.1201960145840708,2.8783706889834115
-9.008962853789606,-4.340344260429009,3.84367637282373
-2.7973329015402735,-9.600777501742256,8.258219825170546
-9.996964881343066,-0.24635982057435818,6.720637310275536
6.099386334023381,7.924486503763434,3.1063517141481647
9.576139776923158,-2.8805462976369767,3.985170949276019
9.495062196150858,-3.137482094168325,5.634564761375371
-9.961238975322743,-0.8796124581377313,2.1539664802632252
-9.768798638995417,2.137889882749173,3.1687275990490438
-9.982213817752804,0.5961604621786033,2.5181410451480346
3.8675090392760114,9.221842214607575,9.9544429045379
9.997524417461715,0.22249836461592873,6.732780032620406
-7.5711594174578645,6.5328052990609695,3.8186363651030364
9.637968631971496,-2.6663759391979,2.036689781475788
7.470091166531611,6.648137932060855,8.336206524259556
9.392813455371416,3.4314800586035306,2.139736943747713
-4.105638322694232,-9.118318592987663,2.4335288513417797
5.2841312972694965,-8.489873758379273,5.343194770911531
-9.346616263765398,-3.5553852699695114,7.4978447204822345
-7.82928134701799,-6.221121570041543,3.2677610396015777
-3.77984270665555,-9.258120171662434,7.201001416498292
-3.061443135645709,9.519851150475398,7.467686272135437
-2.0147446094079853,9.794937680192838,5.862067937966819
5.061488024873189,-8.62446166285556,4.714878671935066
-9.962248342310557,-0.868105964805307,4.842414392828563
-6.571204176492258,7.537856172072448,6.527338671339116
-9.136293047516265,4.065482671209651,4.965341385918234
6.080276460690774,-7.939158529817229,9.939169800846782
-5.6659763856837735,-8.239946091866976,1.3614347449573971
-9.999993715974988,0.011210729716227613,2.662921409644594
-0.46199202192890687,9.989322468099328,2.5541492666274457
-6.863239299415007,-7.272959942070725,9.568991576274007
-6.86832505760186,-7.268157325149092,6.670611369552511
8.576435360520806,5.142446548755596,1.7662825991452724
-9.731867446638057,2.3001643421865445,6.09987245098491
0.7999299725745285,9.967954255461695,2.7405356085797763
-9.986097020954588,0.527130238254155,9.920774615504712
-6.688341371551784,-7.434116605057307,2.8255725998034142
-4.098539121888704,9.121511775267725,1.6574645066012272
8.835333990998459,4.683681593309609,0.5056025776164808
-4.2046510696997705,9.073087092168386,0.6612216709104046
-0.5514899727021859,9.984781360150505,8.326136845160907
2.106214435105774,9.775676997188075,4.391529676700921
9.05329952604594,-4.247089319957417,6.022329628592305
4.884175185128301,-8.726100661863633,6.931267252872393
9.721209637920264,-2.344799175965008,6.4403777417864205
0.030449057052275814,9.999953642638781,2.2190857042842294
9.265002816963726,3.76294071195046,9.494841699437941
-0.6001416133878943,9.981975257627129,8.440546781756375
8.845591839872712,-4.664279687409118,8.033489412847723
9.850324651363891,1.7236891433007355,0.5273362240398893
-9.76359273556631,-2.1615403984188624,5.822237167614542
2.125206657318433,-9.771565722221256,0.2538306863583817
9.393267600664759,-3.4302366947926104,4.19616057907999
-9.95643801591984,0.9323851324137544,3.5561913985028157
-7.224368100716881,6.91436949731097,7.2984989760667665
9.046004861584459,4.262604373407216,6.274690496277762
5.878765749301303,-8.089506367192122,2.6594916539642863
0.2792197317623945,-9.996101056981894,2.8633565196331467
-5.8293555671496495,8.125183916179461,8.775491974770834
5.784006291242369,8.157528499666348,0.01295231365828764
