0.3480813715323372,-0.0,2.5708076220337075
-4.30284599457042,0.0,0.2944882983837094
0.5712120857267644,0.0,6.6098902781828075
4.575093557137166,-0.0,1.837664207742733
4.7775294957510726,0.0,3.423623650014621
-3.2209673563238317,0.0,6.458339110781683
0.38528165985185825,0.0,3.2865230918844635
4.977374927025434,-0.0,6.197069255978569
4.646196513108435,0.0,7.611571883522121
0.5894988633483145,0.0,3.4977783006889593
3.9300863753827073,-0.0,2.149896277213613
4.585273873201487,-0.0,0.67658332260504
3.5028406833539103,0.0,4.789417315507406
-4.806280398245178,-0.0,9.635236502591129
-1.2899884314739274,-0.0,5.958013057380411
3.7831422712103846,0.0,2.3875439210313987
3.4182990513860845,0.0,4.023902419853286
4.873116431231254,0.0,0.06318549052111821
2.599930796774329,0.0,3.105328368552561
0.6367065925354132,-0.0,3.5290075303502597
0.5801747594711371,0.0,9.993686934517797
-2.665185421651577,-0.0,8.789279131938494
-1.3684150490789648,0.0,1.9010708738564164
-1.7513644316569943,-0.0,1.2865872760461639
-0.09263824919435226,-0.0,5.074348592314722
1.2567423874877182,-0.0,2.283540789887677
-3.5420196585451826,-0.0,0.6377077061591119
3.671922698902997,0.0,9.992913376278684
2.4565165458586846,-0.0,2.3617434446942944
3.1070590616059315,0.0,1.7236918291961922
-4.147959480895803,-0.0,8.228657280647457
2.0185517810850415,-0.0,5.497749433705936
-4.581806256886722,-0.0,2.2532419371710297
-3.2726302511242977,-0.0,7.52982187464558
-1.1087162723388544,-0.0,5.356579964855156
-4.608858213200248,-0.0,6.230629214881606
2.324157507874418,0.0,5.8326534404809784
-3.245825109195878,-0.0,2.503733187294107
1.1150621071629585,0.0,4.98229140494904
1.666058384637299,0.0,9.366542483175488
1.9979983850410055,-0.0,2.2651165023120488
4.414302627384652,0.0,9.023400871136433
-4.6419631802742,-0.0,5.263009575739634
-1.7885458631890117,-0.0,2.15087865383215
-4.644455609553555,-0.0,7.123968406644052
-3.4684232216739685,-0.0,6.4013442143197175
4.804452620658134,0.0,2.3930239364226646
4.0816390346318165,-0.0,7.246732414150628
3.840496232549376,-0.0,5.029872248952572
-1.0933728864267322,0.0,4.10892171691493
-0.5135697437433051,-0.0,2.6413672888372064
-2.5128144588214782,0.0,1.462676743169502
2.8189617700626943,0.0,9.697477326392926
3.4396838381498442,0.0,6.61634424250281
-3.9240544473997465,-0.0,2.0084161298298895
1.6230356396068712,0.0,9.315536224929224
-4.107393971982228,0.0,5.9379066592944385
1.4415690927109082,-0.0,0.16715815838114878
0.9791104664882766,0.0,1.035509510841215
-2.1912303890456553,0.0,1.395375175582222
3.6507765770981813,-0.0,6.446813280311319
2.755929644709738,0.0,5.697113997564217
-1.2236936613419158,-0.0,8.406680941544753
-1.0195019538005423,-0.0,7.719467559955745
-0.11561061362848735,-0.0,8.151014024347008
1.0852346675945168,-0.0,4.278560046591107
-1.7741760841855603,0.0,8.591937910657133
1.244691862990358,0.0,9.765429115005304
0.8859301057330915,-0.0,6.66015768993878
-2.483581095011942,0.0,8.90176048832701
2.8240022571874857,-0.0,6.143523430987109
3.0181490525810384,0.0,5.9678456552946715
-4.880851159738747,0.0,7.893509677076979
2.9796832541304177,-0.0,6.984177466821187
-4.177577563481568,-0.0,0.0006265173086739129
1.0950173534948904,0.0,3.7585699372561967
-4.232712840691986,0.0,7.5379351097100855
-1.698345815691359,0.0,6.805913866886173
0.8909654289386881,0.0,0.2761784597370309
-0.1787859290070637,0.0,5.524250153994239
2.3009608473041254,-0.0,3.1812995027196402
3.4627689589389474,0.0,3.869188700772476
-3.796028377050422,-0.0,6.403353697296351
1.1521853579411379,0.0,4.390663777996675
-1.338553456635514,0.0,7.78538372213583
-2.8201728624153777,0.0,5.496782313357212
2.7691273218306813,0.0,1.3417701769034684
-2.2772382650065417,0.0,0.35137079582713837
-4.134417592009681,0.0,3.375714721594143
4.574786918384689,-0.0,2.2522094995135
-3.641226965454619,-0.0,1.1485031236133847
4.7532601054116554,0.0,8.07431507777833
-3.4490574255244666,0.0,6.3617492154509
-3.631941829404198,-0.0,6.601614653539807
-1.9840399172583234,0.0,0.013582402220204681
2.861471739252468,0.0,8.907341646091835
-3.1086897985992823,-0.0,5.345865601095393
-1.0280366893290938,-0.0,7.6235019620218445
-0.015462149648732826,0.0,0.626939613045816
2.544730847779404,-0.0,8.305105563175946
3.197968513422177,0.0,9.040039951270453
-4.984934068419637,0.0,1.1586573975305714
4.011739934033911,0.0,6.443733531785872
-1.753420558268417,0.0,0.05049286430865996
2.5144992336353855,-0.0,3.4899218539528123
1.027616426164053,0.0,6.080289105065965
4.78381469303759,0.0,0.5848738107910278
-2.1695927050167696,0.0,3.6094961111451007
4.480583008582883,-0.0,6.040188228806148
-4.00314319794963,-0.0,8.233569220546412
1.9162164570630003,0.0,1.1442888159775322
2.4921839804444987,-0.0,7.478784172342064
-2.002236773187085,0.0,0.0858582306123079
-3.355918806534998,-0.0,5.836147342911428
1.2015987190195487,0.0,1.0804344824970569
-1.0089125384218522,-0.0,8.728848442318467
-4.925464172339142,-0.0,4.282460098276406
-1.852444494200537,0.0,6.360750061701983
-0.6316321594130636,0.0,0.4293935952666683
-1.3967083039589334,0.0,0.5986152478153772
2.0811065662657358,0.0,8.479223746942832
-3.3232902321092164,-0.0,0.2359933488025756
2.6821852996967332,0.0,7.580794590042429
-0.2669942050563179,-0.0,2.0805141709403885
4.512243981908357,0.0,7.023136015098569
1.3382755625336629,-0.0,7.392542607575374
4.474999433609646,0.0,5.841858344131215
-0.8706618203957772,0.0,4.434590268477794
-1.9765711295496136,-0.0,7.034923900715102
-3.098512331826686,-0.0,3.7067898513634256
-4.89472369751755,-0.0,0.7740231458613112
-1.7492395846297504,0.0,1.3233549912024967
1.365782946049472,0.0,1.5258874692827507
-2.5333382372642332,0.0,3.2348255367515066
-1.4606863005989035,-0.0,2.531352641422653
1.2386075501750782,0.0,0.404652147449458
-4.001084838495825,0.0,2.6466876674386155
-2.801063302973085,-0.0,5.2467512644792755
3.3190611498545683,-0.0,3.4005380962007195
-0.209184027112862,-0.0,3.922331308732925
-0.1256939433212445,0.0,6.190470823418892
-4.990677808713636,-0.0,5.650257808165502
-3.958837393299185,0.0,1.2300675852114185
4.519748442027697,0.0,3.0704510837771637
1.0020717714718053,-0.0,8.091435927722847
-0.47058087137710425,-0.0,2.4601060692783205
0.03605017130708821,0.0,4.64266737468072
0.10151988432045234,-0.0,7.743529046005287
-2.5329771180362206,-0.0,8.365905801038393
-4.601876003847539,-0.0,1.5700860590252796
1.7767934860697265,-0.0,3.0197336314229584
4.128118405705267,0.0,2.3610427595768133
-1.1388706935746207,-0.0,4.255488483758064
-0.5621624388792201,0.0,7.303469386299555
4.237366897499331,0.0,1.8758416839267933
-1.0896391960567398,0.0,9.85437815822751
-1.831407666364846,0.0,0.29147021999456957
2.10139367168554,0.0,1.4440182652508493
4.320583558429297,0.0,3.3828256889329333
1.2244684242316584,0.0,2.385625464225533
-0.12674321955300272,0.0,7.038017092126607
0.2962138411062687,-0.0,4.207823822072462
0.1833463165157534,-0.0,2.27645514475866
4.016246016937547,0.0,6.509888408638106
-2.2905584220238473,-0.0,1.4467836965367709
2.0557939176297513,0.0,0.6401148114440403
-0.9003863376838672,0.0,3.6060850509545928
2.4159699752193884,0.0,5.900338150974749
4.8469076728462355,0.0,9.05144776175007
2.02683397671363,-0.0,7.751180019696969
-1.2852064635676952,-0.0,5.490181607052397
-2.9232346082148686,-0.0,5.464383955240571
0.29685044190835397,-0.0,5.0618087830945235
3.4374821251381835,0.0,0.27238379669740076
4.358179270965642,-0.0,9.430956633263275
2.7776253468943968,0.0,5.3828588872133825
0.6054100822030595,0.0,7.621791866848668
0.44777283344155316,0.0,3.6422354091286913
0.19187018535592237,0.0,1.7880407998878012
0.4935835338486072,0.0,6.107712364032234
2.5152188629717065,0.0,0.21656745096977792
1.593041090514592,-0.0,0.3042771348096496
4.879392242272264,0.0,3.189490270190584
2.8663623573363584,0.0,7.981740382940156
3.9734637974560116,-0.0,1.406671354732374
2.388689542984981,0.0,8.90812567048992
0.648083254684586,-0.0,2.440698307036776
-4.613838297706989,0.0,8.88408698948605
4.545957492759749,0.0,5.464482772882255
4.472689306950656,0.0,5.995822658672058
0.25170092904447383,0.0,5.684593816942682
4.0707402170948335,-0.0,2.5089584916706578
-0.8715858979085511,0.0,5.8627637946884406
0.846807576509534,-0.0,2.830151732752648
-2.789288343261571,-0.0,2.953511474622368
-4.577379402288808,0.0,1.685013292213009
-4.927441449257604,-0.0,7.0666510828356275
-0.569379898138096,-0.0,3.649649449434369
3.145972075825597,0.0,6.0803904241713935
4.740474564324153,0.0,4.109296886615002
2.660384408976162,-0.0,9.99027289336524
-4.608448319344652,0.0,6.295591116055121
-0.4138831159172507,-0.0,7.727731216146456
0.05140920823294093,-0.0,6.441708470187963
-2.9193151916477813,-0.0,5.403110534546269
4.922298481646045,0.0,1.646856572445995
2.0360488029673443,-0.0,2.5001577161531463
4.163959483982216,-0.0,4.766502725739642
-4.686420773008898,-0.0,2.319570292359195
-3.8131115765198786,0.0,3.7941305576964455
1.664244319620869,-0.0,2.6975152957511996
-0.9510312694180412,-0.0,9.52206404212244
-4.512297002337996,0.0,0.6469952225142528
4.731706024518022,0.0,0.21490298784715423
1.2596126787290995,-0.0,6.685887993892071
-0.5044869361871951,-0.0,5.923367692150846
1.4781361310047914,0.0,2.6608017774695014
2.4234554880051284,-0.0,7.950346043095147
4.440197466789733,-0.0,6.469871958703786
-2.5576615861875442,0.0,8.911996422680398
-4.410438938039992,0.0,9.670301899661716
1.7223541614093474,-0.0,1.7081210097034882
0.993826794855398,0.0,2.306201456636919
-1.6984062125437405,0.0,8.451892561730151
-1.3218006561899664,0.0,4.747426391989562
0.5298067039236065,0.0,1.657262588149323
-1.0476488416457086,0.0,2.860406130920566
1.565165331041115,-0.0,0.6217022838859465
-2.0232336164702724,0.0,3.042970087364928
-4.7391766554142665,-0.0,0.9811281146242457
-1.8534952324007847,0.0,0.06468424410848495
2.5055394323162137,0.0,9.915403120891375
-1.9387533242230992,-0.0,4.7646126939442155
3.683177505648776,-0.0,5.140647429512512
0.5908062834372707,0.0,1.9633758857662287
-0.5414343910415031,0.0,0.7197875722379321
1.4727441679870579,-0.0,6.695071734652335
2.062235092524627,-0.0,4.187903452322269
1.219949776225957,0.0,3.558347294257155
4.407402754340994,0.0,5.778353957412357
-3.35350034898425,0.0,4.405347728758087
3.501455414810989,-0.0,4.942493426357411
-1.2333336887790425,-0.0,4.208803061055079
-2.5614038091746716,-0.0,1.4285854365565143
0.18295736978160448,0.0,1.0333727313554175
-2.8382075129107776,-0.0,3.4289592651769585
-2.953283149525224,-0.0,9.911586353816858
-1.932896912800034,0.0,7.987932598689992
3.093368983602438,-0.0,9.293864654008145
-4.131889585060595,-0.0,5.132577794411608
3.3787700131546283,-0.0,4.912866930636851
-1.2179208820979015,0.0,8.020753344231132
3.9517148532156767,-0.0,0.28055428618257605
-1.7281023055608502,-0.0,7.148127139149491
-2.6940447015147884,0.0,0.2899773212416057
-3.350309050994035,-0.0,2.385659847812449
-0.5521205320502964,0.0,6.660227210059464
-0.677925760656124,-0.0,1.965286472639305
-1.2598944716595228,0.0,7.4492822261115945
0.41498434372267856,-0.0,6.586933600185457
-0.26061867181035536,-0.0,0.1137224713251217
-0.31958831307262736,0.0,3.2277391912070117
-3.5690281507673682,0.0,2.4186144331499837
4.8153454438251275,0.0,2.119552895131438
-2.690132832456232,0.0,4.030555913791848
0.2171520650321923,-0.0,2.274774446189056
-2.461721038672694,-0.0,7.827000199097377
1.9074667747035479,0.0,7.583470316988226
-3.44988125747982,0.0,3.885784704014882
-0.9794435982142113,-0.0,2.9697882639061914
-4.536814122730782,0.0,1.0683070183373666
1.1113440323269186,-0.0,0.30601423372194403
3.4852798372299656,-0.0,6.217964202773288
2.8800178543575217,-0.0,1.259879544011625
-1.7183437608578422,-0.0,3.3796949867404047
4.972437111630066,-0.0,4.757994059885182
2.0575759223854986,0.0,2.6452065671064586
-2.390175692796018,-0.0,4.880469224372406
4.510103561899682,0.0,7.546149761346842
-1.0657255684618183,0.0,7.485861350537013
4.196466129776305,0.0,7.809914619129254
-4.882707324540867,-0.0,3.575420445966958
2.305732302100698,-0.0,2.014979007405856
-0.013854179441489256,-0.0,0.7212758883219905
-1.3807465872938085,0.0,8.773449798240012
4.8599694792674475,0.0,4.301454227982788
3.062040081060279,-0.0,4.863977983347855
3.957962773360287,-0.0,2.7018397888804904
-1.975085227065544,0.0,3.5010838535993827
-2.3266567804854645,0.0,0.061263832257916206
3.8273476398805806,-0.0,4.0637487438516215
1.0687736739238496,0.0,1.1925469553423518
3.895929886987539,0.0,3.2105411282390417
-1.9525475694617733,0.0,2.6106900888283615
-4.673902511356175,0.0,1.0030105626889196
-0.23805754364476184,-0.0,2.6650798939304767
4.990919653521649,-0.0,7.60078103772188
-1.6752170920034204,-0.0,2.896470303358419
-0.38468162108951653,-0.0,0.6328506696002789
1.9019340774212101,-0.0,0.6699246163181527
-4.78516628327906,0.0,1.1131729869446072
3.8392201572177997,0.0,9.870531493331915
-0.9710418017086853,-0.0,1.894703921365164
4.50209175704996,0.0,2.6031122321735345
4.494099817778845,-0.0,2.68099685447196
3.594339187663701,0.0,3.778291129939281
1.3868623157386872,-0.0,9.953841453315528
4.724271619941144,0.0,8.482432539418815
-3.797760995734658,-0.0,3.8034329346538955
-2.627884967592381,-0.0,1.261214902492761
3.82411251716013,-0.0,4.5480293581567945
-4.7268683694498295,0.0,7.764206918214621
-2.247667105034803,-0.0,8.109428825676353
0.5803117711409778,-0.0,3.0994404986567545
3.385227464904945,0.0,5.911788421941439
0.0647996406570972,-0.0,9.23708794510809
-0.6593430291050739,-0.0,0.43486912730311245
-3.6941545339218673,0.0,8.98834027388617
1.6707385338430503,-0.0,5.990482856749595
4.256077188727382,0.0,9.618230517161882
-1.686915544980726,0.0,5.594586628866484
3.0105683596039956,-0.0,0.02405876102864135
-4.990567263584214,0.0,5.615994039092938
-3.7218901254354044,-0.0,5.595969504505611
-3.811347530101311,-0.0,0.828154762918526
0.5259835880013697,0.0,4.9786501698485965
-1.4127211768520354,0.0,1.3113951538378121
-3.8753320131108615,-0.0,7.963469632869086
0.33680601016680467,-0.0,3.8408890822536677
4.193031491121767,-0.0,9.139607477989616
-3.6669441006072,-0.0,0.9523219943183547
3.260119248451124,0.0,9.839728277768893
0.23071122026687152,0.0,6.2882583118273905
-0.7586479075145391,-0.0,3.756864548345554
3.7050468137609585,-0.0,7.122549164258519
3.3117621171331812,0.0,7.998380609027198
-2.9700529579131807,-0.0,1.093708576058885
0.790528549705215,0.0,9.863368188676258
-0.46988155375363605,0.0,4.181675154497691
4.270448892089888,0.0,7.040122507189883
-4.221462374570166,0.0,3.7529879571303737
4.574975223443785,-0.0,7.660825752677778
-2.3147272607143443,0.0,6.4525086929034625
3.696906890805396,0.0,8.681355830024124
-2.3131585570642175,0.0,2.2811050751768858
-2.3410223167193567,0.0,6.185882421298135
-4.010169415274902,0.0,3.590712179134743
-3.0978843733513606,0.0,1.5167122970640157
2.2195540354854595,0.0,7.04900553997134
1.7669071397279978,-0.0,0.964162618900255
-4.3567647180683196,-0.0,3.8252654755403825
-1.0180855026255042,0.0,3.7108610893317264
-1.390274246358133,-0.0,6.74533596480626
1.8318530922937093,-0.0,5.243132260928325
-0.5165706111163593,-0.0,1.9731253795690074
-0.5534169656004051,0.0,3.7369668081887895
3.957623752092844,-0.0,2.8858801822141644
0.1972855322065492,0.0,2.705819269677845
-2.8219504637642445,0.0,7.348510584864908
1.1456608694921078,0.0,3.8831164358585157
-3.5151668214600083,-0.0,1.9374909284672692
-1.375946419350964,-0.0,3.801013362083383
3.7918990152532848,0.0,1.405442317282749
-4.438392347751207,-0.0,2.8949555939590454
-3.755989068894655,0.0,7.9386232351015416
-0.4660815553277353,-0.0,8.990763927162554
-1.3797422530461023,0.0,7.396471730818357
-2.7188168131441346,-0.0,2.154471537689794
0.8082515323608797,0.0,6.678367101602981
-3.3072795406442044,0.0,9.988364351704389
1.9782425608980858,-0.0,0.0639201824578739
-1.4806532942686779,0.0,6.615595423062243
0.4284107077631949,0.0,7.075320006414829
-0.04502000289125618,-0.0,1.081550877928471
-0.39426863480568786,0.0,1.6027709021787806
-0.4671268297520803,0.0,6.775346439890315
1.8696058770553425,-0.0,9.25846833632326
1.8412969743717111,-0.0,4.859484954818373
2.1552733007754576,-0.0,6.2169952476821075
-2.4515472685454895,0.0,5.264683303487757
-1.924907885321675,-0.0,5.712383818777318
-1.8397423836322402,0.0,4.35319618194729
-3.609515838825054,0.0,5.462415618877262
-1.0782312534242644,-0.0,6.152973849163105
1.690178128129588,0.0,7.238851688722728
-0.7731221366886076,-0.0,2.5034701022182606
2.6056535583438567,0.0,1.0880640946857267
2.168057849260693,-0.0,1.958343094849272
4.253580539320922,-0.0,3.6873080219010514
4.48406403188884,-0.0,2.601951828610934
-1.5032734185007246,0.0,1.4360433153060082
4.967714442661784,0.0,7.492219565052417
0.11197006586758929,-0.0,6.857699005436727
-4.553477221215841,0.0,5.320689494550292
4.335981445212237,-0.0,7.671182031617077
-0.1411743504094265,0.0,1.2818230674075892
-1.4684038155937507,-0.0,7.1681933721131195
4.57939508654394,0.0,9.725477584491488
-2.9317310501029636,0.0,5.382625591153376
-0.4864913809643945,0.0,5.5453547742277385
2.66604163056513,0.0,7.527179447903646
3.5397959175866864,0.0,3.0423028121006004
0.8655433930212064,-0.0,0.6547480723213162
-2.2178072410677627,-0.0,1.0039312453633897
-4.1847027490627084,0.0,2.9142596901799243
-0.748555726178417,0.0,8.26012599558968
3.482196742016024,0.0,1.633971960013757
0.4576276164050752,0.0,8.583327906268469
-2.3446029998083686,0.0,2.820553378098113
-1.5281660786653828,0.0,2.8085756579113905
2.2229921273248507,-0.0,8.307838021292675
3.1373023507249167,0.0,3.164271446660487
-4.611315793686002,-0.0,5.350943218242356
4.390460238405511,-0.0,8.632348626149355
-4.242104891366102,-0.0,1.7945183330726067
-0.7489630523955271,0.0,6.625442558276566
-1.4646159466912811,-0.0,6.542763071865675
3.638391117157511,-0.0,0.4250431770271579
-0.7196077196183548,-0.0,1.2040623287239827
2.68411439006079,0.0,4.916748333657016
-3.1063112602798504,0.0,8.479985822470313
3.3115521599047284,-0.0,0.07899034268495586
0.45444013199147704,0.0,5.9365820543755525
0.42846512623789135,-0.0,4.313075825197145
-3.7549897751823416,-0.0,6.105515621601723
-3.590000647950913,0.0,1.9418861118544517
4.948707230714762,-0.0,1.561152964591599
0.1331016152945408,-0.0,7.539210053403245
-0.8528997770281621,0.0,3.6242331226310975
-1.1738848619625852,-0.0,6.542088650521313
-1.4177092091196963,0.0,7.441488747972383
-0.4298270584340991,-0.0,6.185872162272314
2.4441987004487062,0.0,5.7234241972406705
3.5573435950016874,0.0,3.7835437041697775
-1.131017883222939,-0.0,5.249274882018248
-4.782551942969452,-0.0,3.092197779349346
-0.004076809857468389,-0.0,8.44188209427794
-2.9675076557419553,-0.0,1.6147599398601664
-1.7900703879915714,0.0,6.220485007183615
3.8103040620701103,0.0,2.3892389151055116
1.8753177786863906,-0.0,3.9712777681990907
1.2885282586178937,-0.0,3.550812921217622
-2.6741362521439536,-0.0,7.571109868028438
1.9726201219546968,-0.0,7.353495126226578
-2.9392852620091023,0.0,0.42413544404145576
2.3126075179959527,-0.0,1.574994060673145
-0.9107705519648324,0.0,7.083987819519081
0.5948319507898969,0.0,8.004462760227884
-1.214886423188215,0.0,4.762316173955929
2.4553694089504052,-0.0,7.691766745011077
4.328441680805969,0.0,8.101678443085534
-3.0247564821425286,-0.0,1.9567394874436839
0.8668445664358504,0.0,1.303286081435917
-4.472595657798946,-0.0,7.701157475122791
1.9829553424395896,0.0,8.593783948706298
4.575244360735437,-0.0,9.899107228304286
-0.9639185555838514,0.0,9.32758959973278
1.6039264425335475,0.0,8.859128561585397
-1.348127905392399,0.0,5.608906317409109
-2.4309345207657254,-0.0,7.019531596310903
4.501966482645753,0.0,6.828489131344914
0.4669846486870244,-0.0,9.531773172801302
-1.0586783988740966,0.0,2.919286451322163
-1.9708240186534243,0.0,7.932537033938613
-4.086706302931875,-0.0,6.746348403834111
4.453961667674609,0.0,0.9698511725441206
1.4408648186987438,0.0,6.564249452040615
-0.9377431589130625,0.0,3.0290780707723695
-3.4870943884027827,-0.0,7.607600328904462
-4.117980094686652,-0.0,5.131538046805998
4.2892674934952115,0.0,5.23703604052737
-3.825787539105765,0.0,9.056934416777803
1.0834065301299312,0.0,7.490785571373253
-1.87859166821856,-0.0,9.403303721352234
-4.374402517416282,-0.0,3.9996021187691086
3.582634633768589,0.0,4.5495787480886705
-4.49660227170382,-0.0,7.994272855828196
4.4403638323179875,-0.0,1.9756150013861662
0.944105287117939,0.0,4.200129148157256
4.555808209035952,-0.0,5.391908599015175
1.2640923616378952,-0.0,3.261605022409888
4.248511119018614,-0.0,6.607237371600504
0.2095286779013561,-0.0,0.46585952810403786
-3.559910462552711,0.0,6.897374772497315
3.507940262757195,-0.0,8.706595726470752
0.39521543628167066,-0.0,7.454349381805664
1.3057558947686565,-0.0,9.19933243693237
2.025295973277058,-0.0,6.810984653903811
-0.5700528401459715,0.0,9.144394927425278
1.4280940649875273,0.0,6.803890001998825
2.769233469700075,-0.0,8.266917524648168
1.656616582980045,-0.0,4.911114097789565
-3.2197063298840876,-0.0,9.961253038250936
-0.44327728005467915,-0.0,3.345171091915835
-1.3651495251127865,0.0,1.3233733115224222
-3.0184137873392514,0.0,8.997588248454122
-1.6365430772494705,0.0,5.386891214305123
-4.518403994118252,0.0,2.129629511474702
0.7417151725660753,-0.0,9.683661481888922
0.30316621104305774,-0.0,1.6453708499525388
4.235652197088279,-0.0,3.503655248119185
-1.7447547075969339,-0.0,9.589515653887075
-0.272476679556235,-0.0,2.9962368173656384
-4.545316662033132,0.0,6.775697960758929
1.8776925868820404,0.0,4.1908228695300656
-2.334616757883692,-0.0,9.03363063528989
0.6008007349532662,0.0,1.6055206653788912
-3.0956051443026764,-0.0,4.458327627304913
-1.9844988534928532,0.0,9.687367719667725
-1.8444867269957588,0.0,2.90776499818449
0.7050006110262386,0.0,2.212660994965935
-2.0830016611793334,0.0,0.30301323055057505
-1.8380268514639886,0.0,6.2563227422689724
-3.281926574608364,0.0,5.451028869163437
1.7572637384033685,-0.0,1.5178281067661181
4.267716170954432,-0.0,1.8226321183671257
-1.2973373497570029,-0.0,0.37425926582200564
0.5289994109186746,-0.0,7.196130120958918
1.5929996400937085,0.0,0.506546464342823
3.9448075965075144,-0.0,2.1014535800334633
0.8508492960825897,0.0,5.937191373545612
1.6813538814338347,0.0,6.104763283794366
-2.7795205663662834,0.0,2.167283195008809
4.086079077206264,0.0,7.670773511741298
1.1080082906734423,0.0,6.616636691825835
4.6840960796163955,0.0,4.269449069731416
3.42356439118117,-0.0,2.105906946056831
-1.0344876787154789,-0.0,8.019981074872298
1.816078282078366,-0.0,5.985844332435902
-4.739946784068966,0.0,4.259915781140137
4.681250177363485,-0.0,6.595409351644323
-3.1357842338013264,0.0,2.153233202802498
4.626683414025981,-0.0,0.34090374974905413
-2.2607900980074582,-0.0,8.48631540173302
0.5281540257770945,0.0,4.877135456075519
-3.5714333338489057,0.0,4.391959704683657
-4.004388052279148,-0.0,5.7805163676805895
-4.727009130235917,-0.0,3.5130116929137047
4.011218112702464,-0.0,7.5092269242723555
4.569065100228329,0.0,2.1937346290170687
-0.3970753964999796,-0.0,7.629565370488887
-0.28253624381785136,0.0,6.574969953349377
1.5534030520943498,0.0,8.030785514534834
-1.61618168499991,-0.0,3.813313733674346
-4.95967868942958,0.0,5.876039037964407
-1.7637800497855805,0.0,8.794473774381665
-2.155268511214472,-0.0,6.060427983947462
2.7660886883945435,-0.0,7.311318207581447
-1.438667806013394,-0.0,3.702222060496273
-0.881273129528457,0.0,5.440385011679018
3.190439685729418,0.0,9.118684085337339
-3.750757829501723,-0.0,0.6447431636965195
4.591737496334489,0.0,0.950683174156226
1.5206304412768201,-0.0,8.288698421342408
-1.5005843767215532,-0.0,3.0794435229702177
-0.6362399008656849,-0.0,9.154334446169502
1.6959958693032318,-0.0,9.212357102799375
-4.903998853050915,-0.0,5.511299102912925
4.092013970217421,0.0,8.060144852488563
-1.239614111233922,-0.0,7.130745421334021
-2.790216631700827,-0.0,4.211689239397652
-0.2792410327053596,-0.0,7.830478695313495
-2.7513336264214674,-0.0,4.506824703542035
2.267567667640973,0.0,0.7882981172020864
-4.789718534903785,0.0,2.6542982341062005
-2.755414761761228,-0.0,3.896411762048402
1.0722852249841763,0.0,3.7575789870060436
-2.4405432698792318,0.0,9.268140824189434
4.146737089397224,-0.0,9.750041213599115
-1.0752901249910929,0.0,6.2371973499729965
-0.7167125304039801,-0.0,7.572354233451502
4.769071047006785,-0.0,2.3365257334865808
4.886091507458618,0.0,0.5467913496886179
0.15806030198826204,-0.0,5.7227578802684
3.9554798226403465,0.0,0.6186013674879032
2.363850604294988,0.0,7.252124305956195
-2.0968267540093466,0.0,1.4416138392574862
2.0548877979678903,-0.0,1.3356446912319553
4.017643864231367,-0.0,7.645048967063764
-2.156930236728196,-0.0,5.0621811150356075
2.1048649772871695,-0.0,3.596323472708786
-0.18062810982099387,0.0,0.9504646014147666
1.6611321235052534,0.0,9.607691425266404
-4.968005335594925,0.0,4.173260860831691
3.7107868585266,0.0,8.767727757442817
1.8926103479004763,0.0,3.963945098675954
2.8948930950377205,0.0,3.7950286888343676
4.995348932499707,0.0,1.9471639293262122
2.483160113321272,0.0,7.362192484648861
4.018415405805986,0.0,7.581228143528698
1.331605878388712,0.0,2.3348492816473385
-1.563181191618006,0.0,4.797075357801367
-2.2820885052632303,0.0,5.828752972879748
2.232564788407557,0.0,4.2663328989272795
0.2448929144215617,0.0,9.734758409912384
-0.908001806486266,-0.0,3.2235962633985347
2.567364987059907,-0.0,0.09643950205847074
4.470565566572713,0.0,9.372357502752719
-1.862828702318956,-0.0,3.145979339709325
3.008598341526988,-0.0,9.68482427165635
3.0537679857900004,0.0,2.7918264664516546
-4.681819587914131,-0.0,8.542571313032816
-2.989361987884165,-0.0,7.191582586369285
0.11920600914997581,0.0,9.756005792967805
-1.5181309203588578,0.0,4.152743240168821
-2.130450000444417,-0.0,4.457497005937037
-4.304643927725403,-0.0,5.5823400757197845
-1.3467505623982556,0.0,0.883751815729994
-3.806524247863438,-0.0,1.7176688805629037
2.6154491168578478,-0.0,5.864729571323123
-1.7294065387773516,0.0,9.450020270573853
-2.1577110071710024,-0.0,4.20096610399267
2.339310750469034,0.0,9.325355540739762
-1.4259862772931753,0.0,9.837779477833653
4.9017403737730785,0.0,7.4311355501663225
-0.24551442926163736,-0.0,9.715066482216589
0.13790403151289654,-0.0,7.729511382426094
-0.5028638660635143,0.0,2.378500451825214
-3.681795117659481,-0.0,3.2529733626973387
1.9841230884998728,0.0,8.972024452193658
0.6351942573726788,-0.0,2.178833541827565
-3.282343007551156,-0.0,0.9359460410792653
-2.6402168493795273,-0.0,1.9309377849217235
4.026461481016886,0.0,5.964825318646656
1.444918169835887,-0.0,5.259620620189503
-0.5914890024576913,0.0,2.3790494433645417
-1.9869348513151386,-0.0,8.961578650957449
-3.7887853589826648,0.0,8.117930328065814
-0.16089712274346302,-0.0,1.1527159529948838
0.599369438132985,0.0,8.949079424794666
-4.645565832694556,-0.0,3.2700138789661226
-1.6587601366748883,0.0,2.757791254237584
1.50493346759349,0.0,6.452418643669827
3.1702393692881947,0.0,6.593228345601389
-4.986728495367586,0.0,5.446530780422342
0.8326374336490427,0.0,9.804195555378675
-3.702977625585434,0.0,8.469549302847742
-1.8481019586385572,0.0,5.586921177673272
-3.1038036430209734,-0.0,5.359783629020333
-0.4146402030802354,-0.0,0.011710494175514174
-2.9601833779549658,0.0,4.168016159151236
-0.6691576781635755,-0.0,7.2617598398821155
-0.8258948550036393,0.0,1.7948390241538603
0.1300952417978274,-0.0,5.525017398520929
2.033350521137459,-0.0,9.956844058623739
-3.434784545694163,-0.0,7.798587847863705
3.8452654014645447,-0.0,0.032399070925517304
1.7320521933781863,-0.0,3.930182747049573
3.7065133601580658,0.0,1.8087568810484522
3.021875423128071,-0.0,0.5544319922161189
-3.7006294074979795,0.0,0.241705979179484
4.723128097899084,0.0,7.018613445474573
3.9140290985802553,-0.0,7.639598752804078
0.4644628447581922,-0.0,3.9833493191632074
-2.3013993540324638,0.0,6.199314695343049
-0.4648071851735258,0.0,3.9288827407643003
2.726590204504702,0.0,6.126743496720174
-0.19506478353004786,-0.0,8.345536753815159
3.161765247845303,0.0,2.8825119647578026
-3.265757432062232,-0.0,1.4918753049866362
2.8861851800221916,-0.0,2.4141799885042037
-0.3309324056224672,0.0,8.71736346490916
0.23590773096705653,0.0,6.023642271675099
-4.169764119213982,0.0,1.856892681104666
4.594519891716868,0.0,2.2913058429537294
-4.198869185286046,0.0,1.7650087873468068
-0.8606896195672531,-0.0,2.982589377269309
-0.9855726757336181,-0.0,4.59433240355324
0.2900649187605919,-0.0,4.5864903411548275
4.602043517594055,-0.0,9.158311746874947
4.768122002243428,-0.0,2.949874559736055
-2.665851329046224,-0.0,3.07077113162702
3.9596164886963248,-0.0,1.55340450339561
3.160567315444033,0.0,0.7287071049776939
-4.780472532610825,0.0,1.0541051336970564
0.2954101400905462,-0.0,4.991291818267625
0.5985061921654045,0.0,2.0722245644631543
4.957831272236523,0.0,7.820957534588334
1.2337764499079051,-0.0,1.5703579531807543
-3.9385704508981547,0.0,2.455851007928951
-1.648117207318347,0.0,8.431670906588534
1.8857287727433791,-0.0,4.054564021004423
-3.720382489504325,0.0,9.224172263480307
2.8183126943332693,-0.0,0.19465471975635862
3.4961159062511027,-0.0,2.4306550859676603
-3.8702406657571222,0.0,0.08128941543402379
-1.1686663296910793,-0.0,4.2096412258776885
-1.177842943899734,0.0,7.468860983089652
-0.0007608113471890832,-0.0,4.829329269781123
2.2929398055521077,0.0,5.273829075225746
3.421658008794414,0.0,5.271073430178509
4.9656243151683,-0.0,5.37697119269788
-4.841818122608884,0.0,9.886840877569952
-0.14744904803855485,0.0,3.365072788167943
-0.17909873707407375,-0.0,2.255206199701777
-0.3614271918276657,-0.0,3.070475242650991
3.722289572483236,0.0,3.083932545772562
3.1335635531324613,-0.0,3.7258462721352794
3.0004725463174955,0.0,6.853085888759635
0.9907131019587334,0.0,2.6978458089924784
2.4082078056704734,-0.0,7.823107297172948
4.133355997824095,0.0,2.526041210330633
4.273718599015438,0.0,4.928957097487006
-1.238412254736081,-0.0,8.421990309595675
1.5100304091920602,0.0,8.028399107285876
-0.7641639818620949,0.0,5.521676259458269
1.3528249563642702,0.0,3.410166170721455
2.2517643511616505,0.0,4.893061059059432
-3.7040239914720074,0.0,1.9901603182200889
2.1321629348675017,0.0,4.662061514862071
3.845831582676137,0.0,6.793703514479622
-4.18030049366961,0.0,6.134784477051966
-2.0156259761473883,-0.0,9.71977867838076
-1.061839460242333,0.0,6.3367130301840735
-0.14320833094545127,-0.0,2.891131118622141
2.0588235721962276,-0.0,6.740143273348562
2.600718966017257,0.0,1.0090277992987895
4.124098326646713,-0.0,0.28725657399117477
0.4985312980578138,0.0,4.875346921260805
2.5468950356002686,-0.0,9.628006125424744
-0.5475442847787848,-0.0,0.651746354377144
-0.5994195603312935,0.0,3.578535727603307
1.1979935535369945,0.0,3.5747760055551425
-4.417074293333049,0.0,7.9674139341461006
-4.552945325323416,-0.0,9.652963124606009
3.0304591000347623,-0.0,4.437809879634185
-2.9816805239386457,0.0,2.667331381630337
0.43202058328308257,0.0,9.701985133669448
-3.938654706989333,0.0,3.8819896949590027
-4.187803106596334,0.0,6.332399865165431
-4.003441730778354,-0.0,1.5043862972423094
1.8208035348346252,-0.0,7.270638989765658
0.8726071224963083,0.0,4.897607948076451
-3.911170824596968,0.0,2.3551159601832494
4.7044202776538,0.0,5.03508532230976
-0.9454092106660006,-0.0,9.622147089908239
-3.0144701977688895,-0.0,9.969963406110162
0.0015971564987316,0.0,6.098298651064608
-0.2750133944719513,-0.0,6.25519484765254
-4.642583988851431,-0.0,6.51080148201258
-2.725079477528778,0.0,6.502620035709823
4.306796228556858,-0.0,6.495828192152572
4.02718389393351,0.0,5.594683430861113
2.9335816302224718,-0.0,1.955832400470774
-4.291132703687723,0.0,9.156643833746836
3.2700497106728865,-0.0,8.614028719559261
-2.4257237414919866,0.0,7.158626354197105
2.265886776959891,-0.0,2.6034970651374745
-0.4579200278207973,-0.0,7.040837193382031
3.0371260731639147,-0.0,8.772789918585927
-1.3796302670701899,0.0,8.09645334535359
0.4632405398530426,-0.0,3.7122591468340636
-1.7639320662591218,-0.0,8.948309864543019
-2.734805709011253,-0.0,6.124587243612149
-2.1252147659899467,-0.0,1.9244417285906168
-1.163058649026244,-0.0,2.7000315807784157
-1.1475911263834826,-0.0,0.7451183392039096
1.797569590617779,0.0,7.114811283288476
0.5600209160598391,-0.0,2.041635811759712
-3.5209595324859952,0.0,7.450754406966627
3.4239411116087934,0.0,9.965397158890601
2.9103429503017306,0.0,0.6587903025349817
4.469446536588244,-0.0,8.090495651601982
-2.3654812717947706,-0.0,1.6803230126463942
0.23241974277921185,-0.0,1.7527542581107325
-0.4332969197355474,-0.0,2.4320520126678726
-2.28437833067166,-0.0,2.6496808434179355
0.5296775647695484,0.0,9.211685509086042
-0.5124507271674561,-0.0,2.430507748607317
3.9428710656441233,-0.0,2.778076364430887
2.154352504797851,0.0,3.9678158712524025
-1.2969908189599266,0.0,9.631007073307034
-4.538883843229855,0.0,3.4336772024460807
-3.1062760900507924,-0.0,0.7090460537322962
-2.739182468174912,0.0,1.7957053938081036
-3.302184130180784,-0.0,1.7436480534840304
3.201205403996429,-0.0,6.64878356373051
0.4985604104316155,0.0,8.947056750537767
4.456079502809658,0.0,1.3213912834223118
-1.919186645903197,-0.0,1.5681786565098454
1.8317398972691634,0.0,1.598480952093967
3.4313957686145278,-0.0,4.730971195419937
3.7400597772235566,0.0,6.005277312131456
0.09330324865517658,-0.0,2.12465022071619
3.042423906551072,0.0,7.074174191037091
2.5436828270795364,-0.0,2.6345821519490666
-4.868554720246565,0.0,8.177829104779196
-3.179213243505634,-0.0,3.032108252433736
-3.502757895678296,0.0,0.5438716787997921
4.860763392254656,0.0,8.081073411424772
-0.6249194365343302,0.0,9.455806649876962
4.9756733982939485,0.0,1.4987604928646148
2.0492436389644366,-0.0,8.938277590541194
3.995150833436536,0.0,6.2932618274139
1.1589450254147793,0.0,7.7495830127292775
4.963270553290055,0.0,5.810016036973434
-0.2667208211502592,-0.0,8.631213808391179
4.867583093960817,0.0,6.6024187523237154
4.444088770085885,0.0,6.749638349968709
1.2109174779382514,0.0,1.2061621532222522
1.9099240848582533,-0.0,2.6962370178456796
-0.20572230582561857,-0.0,1.2529364703644885
-2.1227710783547105,0.0,1.493316935991853
4.1343501663000435,-0.0,2.8828588933459374
-2.977442013673941,0.0,8.825713691198793
-2.2296840281309227,0.0,4.722534105126339
2.7478827318115795,0.0,8.42462921709722
4.184753948856363,-0.0,3.5168036262334725
-3.109036874953024,0.0,6.4379024983367925
-2.177030123545208,-0.0,3.0105132680066804
-4.0779455595598755,-0.0,9.345362688480988
2.0637141204603315,-0.0,5.56971720258427
-1.2330444400448826,-0.0,8.889977717852913
3.366562381798132,-0.0,3.440761443995201
1.8682525972982156,-0.0,9.417144672190593
-0.08778401727051688,0.0,6.4931375621710075
-4.7562663503106855,-0.0,4.916267797913932
-4.610601508057998,0.0,8.277360214155763
-3.08274294398591,0.0,0.931286804508501
-3.909275430004512,-0.0,6.794101580638041
4.286305941660432,0.0,5.342713487160982
3.203766160562015,-0.0,6.5072116271274805
4.430379920185573,0.0,5.547801233336167
-3.871105413935807,0.0,4.465886185937393
-1.689471093435455,-0.0,1.127713067643441
1.9425385693641006,0.0,6.62302679646251
1.5778745377376657,0.0,2.290597397467579
2.150850222529513,0.0,8.237391746982343
0.060836304684420694,-0.0,9.348541137415983
3.8645968534236506,-0.0,3.010354661255783
-1.0693397956099637,0.0,1.537970963573373
-3.3671882187755555,0.0,0.8923314447473096
1.039589712179807,-0.0,7.211294748711437
2.597589118770097,0.0,9.341769208534265
-0.875829240797289,-0.0,8.046163486843911
-0.05209063360603894,0.0,6.274767953889311
4.029297662083696,-0.0,5.2269917514148245
-0.941259850335775,-0.0,5.737029226449909
3.8191517996807445,0.0,0.922284080004484
3.330420189729969,-0.0,4.826201877681903
0.8133883562005195,0.0,6.26417173087769
-0.012363518000479967,0.0,6.16256838978611
-1.1388409534314825,-0.0,4.7725129017964125
-2.5213965211969827,0.0,0.1481855180731928
4.072442297880422,-0.0,5.0830397319966005
0.023511726133175204,0.0,5.287587341290138
-0.879889808254507,-0.0,9.475294967971115
2.544221098311162,-0.0,8.613598833297067
1.703937158491946,0.0,1.1063232617546137
-2.2014145576844877,0.0,3.18812382797217
-3.203434854864695,0.0,9.907548909412949
-1.1774609949123604,-0.0,5.638008647305263
3.3101089539361905,-0.0,1.1732058386414912
-3.265566372129751,0.0,6.133803784211737
1.6020867518668658,0.0,9.52365053902325
-2.397716667290839,-0.0,9.377609034856976
-4.06726952664714,-0.0,7.529996207744908
-2.5117677277676,-0.0,1.0982707248154944
-0.4704202982396688,-0.0,9.889244610670076
-3.091774698392995,-0.0,4.845486309346585
-2.902207536551349,-0.0,2.294422756840102
-1.4060019701536308,-0.0,3.150338289480825
2.515163087573619,-0.0,9.640228487325537
0.7296980528750208,0.0,3.4604192732063535
3.6237653417851137,-0.0,3.5870924368148005
3.1225309877977847,0.0,5.751763686222342
-3.4447210865147815,0.0,1.9225520775233484
4.239807769443374,0.0,3.985555404916681
-1.4975420240877557,0.0,9.960964220602582
4.436391139017212,0.0,8.54327554167783
-2.5907738800736624,0.0,6.226313261790471
0.4132067983546439,-0.0,1.1111834522715203
-0.6952142721882337,-0.0,4.782254716196834
-2.099322011097653,0.0,6.3964312726373365
0.9220745533208619,0.0,3.9351104900734835
-4.644230552011188,0.0,4.712342294121657
-0.5302234847292764,-0.0,8.973536556278022
-2.8483944830424726,-0.0,1.7505488307378125
-3.9846774316173708,-0.0,4.093918095190744
0.24624067444286912,0.0,8.630191285234606
3.3645509371699625,-0.0,7.577527100731416
-3.584136922744462,-0.0,6.9516369265948015
-2.3445194804389793,0.0,2.3189975432499765
-3.324503851919652,-0.0,3.1357832891262505
-1.6244137860744479,-0.0,3.179587127289014
4.701367804414572,0.0,2.397157631785146
-3.4246847829145954,-0.0,5.010491315735503
3.976825690385456,-0.0,1.6890050262140521
3.5444406274932483,-0.0,2.1294268558887652
-4.629554651948301,-0.0,9.51254901739522
-2.979625135765388,0.0,3.2462762849421645
-3.6370174279848966,-0.0,6.449620985030591
-0.9324129290000671,-0.0,2.8512928469377288
-1.1911999171513454,-0.0,1.6063241631074343
-1.4993407537063963,-0.0,4.649857244994106
4.886235524017735,-0.0,8.47771579980932
3.1365131258921206,0.0,2.649186355217812
-1.7324442605502055,0.0,9.479979897312615
-0.1568148466300956,-0.0,7.00609298597711
-3.9129033524598187,0.0,6.388277578617839
4.677880329938158,-0.0,8.590472982645215
3.518834372858486,-0.0,1.772934448306147
-3.608982126723207,-0.0,3.8785653801891296
1.4059708909044166,0.0,2.245100440219713
-1.3362223815796237,-0.0,7.720290309425561
4.987757484999756,-0.0,2.4916078111635187
-0.020798346786535804,0.0,0.048132874632280664
-4.984367632622827,0.0,1.5828919205321113
0.42192428753961564,0.0,0.4397209322029805
-4.5950286328513235,0.0,1.4937455916860753
-3.8498219269001197,0.0,0.6230409707604911
-3.476782239876889,0.0,6.055276686321497
-4.438324446539821,0.0,7.700789343631589
3.361211895009463,-0.0,1.0362907737767912
2.838257723647758,-0.0,9.03761276692996
-3.788061449832277,0.0,6.3625096188942525
0.48747772766205344,0.0,9.600864686604124
-1.739991764737998,-0.0,7.810127180091905
1.8319731345483303,0.0,9.250147187555148
-1.3306834178738802,0.0,6.203518886092853
1.2095262602317036,0.0,9.884997908258818
-1.0741878204829458,0.0,3.491221039524909
-0.1631934005055269,0.0,2.2041819978554034
4.811211439850518,-0.0,9.04745721060291
4.585069780560598,-0.0,5.31133799595975
-3.3607005608370977,-0.0,7.110047732758372
1.3470134971476366,-0.0,4.640856952173033
-3.4604348779443095,0.0,6.29032645990941
-1.0543714625502143,0.0,2.6386386160645814
0.058757691791461175,-0.0,8.52424764891296
-1.3719847673263041,0.0,3.520707912425941
-2.0465212072226735,-0.0,9.766307978530202
-1.3548569695473633,-0.0,2.2979361992418843
4.665934320381555,-0.0,4.765733564645638
2.4076234969846197,0.0,9.823984644819117
-2.831043659871421,-0.0,1.5078014256889327
-0.44961435968763674,0.0,8.295239802803327
0.6833774452815855,-0.0,2.928784307929604
4.233917150785479,-0.0,9.349280919952866
-2.535585744838833,-0.0,2.434752906776584
-3.804841838327623,-0.0,6.971705637903755
-0.13116248989664125,-0.0,0.10304822353087273
-2.588052593086875,0.0,4.722766299010331
-0.28715857665307376,-0.0,4.112529320400813
0.42269913452710584,0.0,0.7528124285481508
2.358679952203687,-0.0,0.6556365254638863
0.5059845134656693,0.0,0.9610749470306945
2.04376530157105,0.0,3.9151686185416312
-0.5059970477519082,-0.0,9.51585873395379
4.995885691161842,0.0,6.246094243737833
1.9657692302655083,-0.0,1.8356028280274606
4.242971007633215,0.0,1.5749964107164038
-2.1416091590476096,-0.0,1.1527134973149245
-3.5757018851665103,0.0,2.6574313575154873
3.4158159086619055,0.0,0.5356991908268782
4.064316546933785,0.0,6.810768774265449
4.456129241058884,-0.0,9.481252478674524
-1.1252505817877378,0.0,6.536848282033364
-4.143431749054807,-0.0,6.492983662598983
-0.5853590077188275,0.0,9.611067709067333
-1.9018355627066719,-0.0,3.7889147238122445
4.842683756953896,-0.0,3.9723568971045795
-4.676776418750368,-0.0,4.096336812071307
-0.8640615801906981,0.0,1.559037590190342
-0.4841617073738702,-0.0,8.028999175324275
-0.39941098295851685,0.0,7.787289039984854
-1.3034012729254763,-0.0,9.167987674856493
1.4261253135394747,0.0,6.104008553245157
-3.830854012209235,-0.0,8.425826852157842
-2.4961004801806386,-0.0,2.078802734406411
-1.040343689687313,-0.0,9.459517371107067
2.664232180144377,-0.0,8.166183989343665
3.961095646887051,-0.0,2.7230962977716455
-4.7007429319465155,-0.0,3.335253824918879
-1.0008750505193542,0.0,5.268905176881372
1.4016557663467422,-0.0,5.0345756246996975
2.501725601375131,0.0,1.5006779644421708
2.445483757952788,-0.0,9.269357358341919
-4.24957210849394,-0.0,8.690751047431691
0.32503874157488566,0.0,1.3809443199501037
4.745323916486363,-0.0,3.174719262874146
0.7564681043331523,0.0,5.906513788012674
4.7085061616945385,0.0,2.791958973342653
2.488599106424517,0.0,1.627097642446843
-4.233500511940639,-0.0,4.032382274635288
-0.4892752348124796,-0.0,4.8413010809655885
0.31769708959900944,-0.0,5.4654665618025895
3.6600159109812913,0.0,2.8298527551987798
0.7347686034472867,0.0,8.566542518685546
2.401518237889857,-0.0,2.042747929661534
2.7754012848019247,0.0,6.806343749253418
2.582823919057371,0.0,5.519462372964137
-3.9738329066250353,-0.0,3.613946933087261
-1.2640530010101125,-0.0,4.954566320583305
-4.48586103026421,0.0,5.504844380292759
-2.071277833829753,0.0,9.242495385767032
0.01748919647134417,-0.0,3.3093644334494385
-0.5636617992874515,0.0,1.402868315893131
-3.3984805386637342,-0.0,2.5038458319626455
-4.665518828431384,-0.0,4.6400192913478016
-1.244028735377234,-0.0,2.8232873430213132
-4.3759124711730415,0.0,7.810994399176295
-0.5321209181607667,-0.0,7.243745188928998
-3.473144322777056,0.0,1.793623316523485
-1.4641586334729595,0.0,4.5218273271702305
-1.2434710529038562,-0.0,8.147743044199185
-4.995572175970411,-0.0,5.227923111591525
-0.4280983292881091,0.0,7.225699663457101
3.690292560163285,-0.0,6.614870598873576
1.276522714872812,0.0,1.487611971216125
-0.29645514506574266,-0.0,8.61990883044459
4.848606264415477,-0.0,4.843058447046433
3.0256483167244177,0.0,7.09886358784464
-1.1544158512270097,0.0,6.0014230564007365
-4.175845309347826,0.0,8.843921765496354
-0.8923519339177155,-0.0,3.6066842341102245
-1.5931297691677404,0.0,2.1937849593089522
3.3542100124480125,-0.0,6.493076486833963
-4.998115592141897,0.0,5.750784910680925
3.841528662257158,0.0,6.758319127250964
0.3107671773308329,0.0,8.01073869872899
3.9706368469730133,0.0,6.361896534592093
2.205923151616276,-0.0,0.6156664996780481
4.662655669652073,-0.0,1.7127365248163062
-1.880604833023728,0.0,4.88109431204136
2.668381618066248,-0.0,5.044240344686983
-3.4419672520711275,0.0,5.35103070354399
1.5498614873663819,-0.0,8.48355713127781
1.9914585154370912,0.0,5.3796070523048005
-3.507750468861185,0.0,7.031179166714256
1.9544169888361829,-0.0,6.056160875246369
1.1171187407065275,0.0,2.5860555288073317
-0.016547400186815997,-0.0,8.319241014167504
3.6503164721868075,0.0,8.20108059840949
-2.252442963333844,0.0,0.8260026021179878
4.444503575188127,0.0,1.7488646784059692
1.3106153496616368,-0.0,0.49778438225215105
-3.1681924593103847,-0.0,0.5646800826589049
4.7599671518763484,-0.0,9.746549599361122
2.0473699439122592,0.0,4.321795778904285
-1.7084795044766643,0.0,9.22840929225783
-4.167385247967688,-0.0,3.5279512504005273
-2.8193991562085516,-0.0,0.38546455823808445
3.0399899039899116,-0.0,2.258879629787387
0.3449482757284583,-0.0,1.8990596931509962
1.8026816225699727,0.0,2.8160296584118836
3.0776105100108007,0.0,1.847932945512617
-3.961521177803331,0.0,7.07582680786904
-4.723521725620406,0.0,6.25651593086109
1.51790958463908,-0.0,7.111226402351022
4.676931101641287,-0.0,6.313395128624966
0.22064584625534178,0.0,3.3491836839099
4.730669611766997,-0.0,9.889872057516456
-1.5456611139030452,0.0,5.590339827560239
2.393959436501242,-0.0,7.623824509355365
-1.7446086604380195,-0.0,2.123548461570829
-2.5003435019221554,-0.0,7.3740619333379716
-4.670016693233501,0.0,1.7597707792616857
2.5715087668387913,0.0,0.8497264369068191
-2.3362837411487094,0.0,0.20927849847923508
-3.921898405536358,0.0,9.75839188984197
3.907799760761831,-0.0,2.007108082902227
2.6372434535517053,0.0,0.5602668031108937
-2.3201236415483226,0.0,6.413746746898298
4.254785269949429,0.0,5.087697312555544
-0.20330024798042579,0.0,1.190530283243444
3.723033482286878,-0.0,7.71940745204712
0.5359301200680733,-0.0,8.132795520499268
-4.639623785904287,-0.0,5.867350558503565
-2.5492221271231355,-0.0,5.159773701720693
-2.6376624548648433,0.0,4.04113550506837
-2.5400106979978174,-0.0,0.5115584187710032
4.905163578790469,-0.0,4.448945411307006
-2.767529336754544,-0.0,1.2678831222743425
0.6438698389536568,-0.0,8.811081679867305
1.3825727086361095,-0.0,2.491201475467758
-1.4017765206302135,0.0,6.523155187408691
-2.286692120385827,-0.0,9.48320104326047
-2.845460574449381,-0.0,2.2271046317835044
3.8156560001605513,-0.0,9.530958252791153
-0.28560377237142665,0.0,0.3278769171877294
3.8940558648327315,-0.0,2.2631528588874206
-2.1607351104900854,-0.0,1.3414096403490805
1.9320353401597923,0.0,9.576475618237376
-0.5884651614797964,0.0,7.084030671773779
-2.9860402315235435,0.0,7.935390121218258
-1.0256604480473397,0.0,2.348392611707666
1.7774946367800593,-0.0,5.35891713658719
0.6352639035284757,0.0,5.804453515946033
4.609136575489722,-0.0,2.587104450457219
-4.126917777820899,-0.0,5.855544897650624
2.929052709596116,-0.0,1.7813986900300383
4.0172327486656805,-0.0,7.268261049112352
-3.879243278807394,0.0,2.795254930421165
-0.5632023234658579,-0.0,6.701263984544942
-3.381507064153093,-0.0,8.187298077589173
4.853913448681705,-0.0,6.209336309002867
-2.99416068345866,0.0,3.7768858816577575
-4.958712567564801,-0.0,7.82862089234496
1.9343545831290843,-0.0,0.12493165539158246
-1.333931744691268,-0.0,6.846178801964161
-2.00084250072307,0.0,2.0252639518020388
1.5523325436158841,0.0,9.223389478929489
-3.9139262633054117,-0.0,6.700739081268079
0.874473749797845,0.0,5.902076616652424
-2.095712181098104,-0.0,1.8106758463283035
-0.053595935791921345,-0.0,0.06123203108987618
-1.1211457050197815,-0.0,3.6215935940427215
-1.3467301977170865,0.0,7.449669972660228
3.1657549709875266,-0.0,1.4177595199373028
-1.9990317676303027,0.0,1.0525576863749908
0.09590704527125626,-0.0,0.37787410782044617
-2.079734684358935,-0.0,8.707587586690446
-3.3075754796454815,0.0,5.059636946465755
-0.8298452861202976,0.0,1.7520281969696905
4.909297654446072,-0.0,5.264331799560424
4.7871084333817375,0.0,7.398129995436484
-3.5557998850738235,-0.0,5.707695113603183
2.3946279327451467,-0.0,1.8631037141191709
1.7887919394617047,0.0,8.106218323090628
-3.6322731002492836,-0.0,5.333121190837039
-3.6450389889620958,0.0,3.7146396535555013
-2.2831728190549083,-0.0,4.467498220504127
2.0306470654573916,0.0,9.792084201555145
1.3005091337810804,0.0,8.733644063373912
-2.8121882958134115,0.0,4.799431730272891
-2.919181196828753,-0.0,1.2563392867093115
2.3554273260304006,-0.0,8.790199085167124
3.99570129061554,-0.0,8.569834356848512
0.6767373296001611,-0.0,6.762350351984292
-1.5541923879779262,-0.0,3.976441856148046
-3.427210666353343,-0.0,7.211220687786222
3.163739995244137,-0.0,7.09635813994894
2.4640281654717446,0.0,9.570744474301932
-3.070282568887336,-0.0,6.913007878152953
3.255549097000763,0.0,5.719617235158413
0.6287482169243508,0.0,2.0355238620025173
-1.5982286512532728,-0.0,3.5437245727255995
4.499259254007068,-0.0,1.6014261427324628
-2.6306121695086624,-0.0,9.578281941957034
4.904883703377405,-0.0,3.6434210629164743
4.066067917781165,0.0,2.2433805435826804
-3.2870916869848665,0.0,2.1507315019411655
4.817949988635142,-0.0,4.256341930758939
